ply
format ascii 1.0
element vertex 750
property float x
property float y
property float z
property float nx
property float ny
property float nz
property uchar diffuse_red
property uchar diffuse_green
property uchar diffuse_blue
end_header
9.00224 2.10354 9.89122 -0.696102 -0.324317 -0.640516 80 55 18
9.01537 2.14841 9.81462 -0.510526 -0.205621 -0.834915 86 60 22
9.08582 2.24077 8.95379 -0.965013 -0.261957 -0.0113702 140 106 36
9.01527 2.26606 8.94008 -0.975213 -0.217509 -0.0406242 139 103 33
9.13127 2.25533 8.84559 -0.981092 -0.192717 0.0178341 144 109 38
8.40928 2.11147 7.25534 -0.501979 -0.10464 -0.858527 149 116 43
9.08821 2.55139 6.81762 -0.996905 0.0676368 -0.0400808 128 83 15
10.2335 3.29782 6.51892 -0.927185 0.328932 -0.179256 132 86 14
8.42568 2.18781 7.27573 -0.921964 0.0536483 -0.383541 116 85 26
8.09745 2.01288 6.69423 -0.916353 0.32346 -0.235948 111 83 30
8.93206 2.51801 7.07107 -0.553803 -0.0437973 -0.831495 113 74 18
10.3779 3.58256 6.6385 -0.98708 0.132164 0.0905853 131 84 16
10.1954 3.54096 6.51245 -0.388937 0.179319 -0.903644 130 83 13
10.3968 3.5419 6.57566 -0.985264 0.141371 0.0962743 126 78 13
7.7887 1.3445 10.7296 -0.54975 -0.803884 -0.227039 245 239 100
8.69859 2.16773 10.0359 -0.654872 -0.315019 -0.686954 93 68 26
8.80013 2.25996 9.93167 -0.2717 -0.928616 -0.252689 123 88 36
8.841 2.21463 9.99744 -0.708561 -0.370654 -0.600464 87 62 23
8.89635 2.20073 9.9485 -0.670066 -0.300154 -0.67891 85 59 21
8.80328 2.24727 9.85788 -0.48881 -0.699637 -0.521127 114 81 30
8.88373 2.2499 9.85949 -0.262159 -0.887859 -0.378126 123 88 35
8.31412 2.23076 7.18751 -0.0102613 0.39009 -0.92072 82 42 17
8.42707 2.31916 7.17267 -0.635798 0.357524 -0.68406 78 44 13
10.4041 3.71047 6.65142 -0.98853 0.120715 0.0907547 129 82 14
10.472 3.81134 6.62408 -0.986834 0.156658 0.0402073 118 73 9
7.72384 1.49062 10.624 -0.966017 0.10687 -0.235352 222 212 84
7.71931 1.53563 10.4933 -0.496884 0.0850497 -0.863639 219 208 83
7.80891 1.50029 10.6621 -0.117981 -0.392706 -0.912065 242 235 98
8.55339 2.12999 10.1984 -0.929841 -0.322887 -0.176463 80 55 23
8.75886 2.28503 10.0572 -0.692323 -0.437012 -0.574203 121 89 37
8.75165 2.27872 10.0662 -0.429711 -0.608371 -0.667258 123 91 40
8.60704 2.25229 9.64984 -0.213595 -0.931607 -0.294083 136 101 34
8.81364 2.28001 10.0531 -0.682625 -0.444213 -0.580258 114 84 35
8.39806 2.16325 9.27463 -0.330495 -0.915612 -0.228971 137 102 35
8.69928 2.27654 9.81116 -0.362854 -0.766212 -0.530336 127 90 31
8.46601 2.21992 9.34761 -0.237073 -0.935783 -0.260973 135 99 31
8.47318 2.14765 9.21805 -0.315277 -0.91979 -0.233639 136 101 35
8.4652 2.21862 9.34647 -0.237703 -0.935727 -0.2606 135 99 31
8.47586 2.20115 9.23631 -0.242068 -0.935445 -0.257578 135 99 31
8.50212 2.25442 9.32682 -0.272289 -0.930881 -0.243556 138 102 31
7.85746 1.96262 7.67487 0.0369233 -0.524409 -0.850665 146 115 37
7.84168 1.96541 7.6645 0.0408787 -0.502067 -0.863862 147 115 37
7.85519 1.9628 7.67269 0.0370668 -0.522779 -0.851662 146 115 37
7.85546 1.96381 7.67458 0.0356128 -0.53182 -0.846108 146 115 37
7.77687 1.98007 7.56915 -0.392897 -0.444716 -0.804898 146 116 38
7.81484 1.97937 7.54675 -0.158144 -0.568071 -0.807642 146 116 37
7.88394 1.97115 7.62293 -0.148084 -0.564238 -0.812223 145 115 37
7.81561 1.98076 7.55079 -0.14849 -0.585198 -0.797179 146 116 37
7.80979 1.98358 7.53394 -0.374328 -0.414224 -0.829636 146 116 37
7.88269 1.97163 7.62235 -0.152065 -0.564942 -0.810997 145 116 37
7.81253 1.98027 7.54575 -0.163707 -0.567547 -0.806902 146 116 37
7.88059 1.97155 7.61967 -0.166068 -0.564094 -0.808838 145 116 37
7.80281 2.01146 7.49135 -0.456584 -0.458515 -0.762427 150 121 42
7.84648 1.99049 7.50806 -0.191525 -0.580028 -0.791762 149 121 40
7.8473 1.99208 7.5095 -0.195813 -0.588492 -0.784432 149 121 40
7.84627 1.99255 7.50944 -0.198225 -0.593018 -0.780408 149 121 40
7.90533 2.09716 7.44503 -0.639948 -0.41306 -0.647957 140 108 42
8.10955 2.21868 7.27838 -0.551385 0.380459 -0.742446 82 46 21
8.54498 2.46567 7.28807 -0.356071 0.206742 -0.911302 107 70 20
10.4284 3.84094 6.66376 -0.989772 0.107764 0.0934818 127 82 14
7.64475 1.49101 10.7161 0.0631104 -0.526608 -0.847762 240 231 97
7.61287 1.52693 10.7741 -0.447013 -0.549542 -0.705821 239 230 96
7.6269 1.57574 10.5763 -0.615508 -0.336314 -0.712771 224 213 87
7.65326 1.51166 10.554 -0.571876 -0.0267405 -0.819904 227 216 87
7.6357 1.51175 10.4915 -0.5705 0.10538 -0.814509 226 216 87
7.68899 1.57865 10.5633 -0.614576 -0.381077 -0.690707 237 228 95
8.4807 2.1402 10.1936 -0.595514 -0.0389421 -0.802401 80 55 23
8.11603 2.14323 8.96891 -0.842707 -0.524511 -0.121384 133 99 32
8.39036 2.24916 9.40012 -0.234674 -0.936642 -0.260056 144 108 37
8.39395 2.23787 9.41522 -0.299386 -0.924124 -0.237409 142 107 36
8.43799 2.22601 9.32065 -0.226974 -0.934592 -0.273899 136 101 32
7.68063 1.96097 7.78512 0.0522024 -0.509733 -0.858747 152 120 42
7.75263 2.00446 7.48206 -0.498525 -0.278524 -0.820912 149 120 42
7.73361 2.04345 7.49652 -0.533073 -0.135704 -0.835115 145 115 38
7.74393 2.01088 7.54944 -0.25647 -0.559479 -0.788166 146 115 37
7.76754 2.00261 7.49302 -0.472288 -0.292532 -0.831486 150 120 42
7.77716 2.04682 7.48874 -0.507882 -0.21161 -0.835031 150 120 44
7.7768 2.04533 7.49078 -0.515924 -0.206963 -0.831258 150 120 44
7.77907 2.09591 7.52742 -0.428872 -0.189313 -0.883306 147 116 38
7.81039 2.04352 7.46061 -0.478887 0.245626 -0.842814 149 120 44
8.39889 2.50785 7.47183 -0.512496 0.298423 -0.805166 45 31 17
8.48249 2.55994 7.15631 -0.607166 -0.750416 -0.2612 141 93 19
7.5529 1.57683 10.5548 -0.56373 0.456198 -0.688543 223 213 87
7.5976 1.63161 10.609 -0.562647 -0.359531 -0.744423 217 207 86
7.55766 1.5999 10.5382 -0.529677 0.519574 -0.670437 236 228 96
8.41845 2.25953 10.2515 -0.680621 -0.718217 -0.144636 117 85 38
8.04877 2.20993 8.92706 -0.85196 -0.513297 -0.103391 138 108 35
7.60727 1.9546 7.83339 0.0647028 -0.460039 -0.885538 151 119 42
7.72875 2.10975 7.4939 -0.409256 -0.148961 -0.900178 120 87 28
7.74679 2.09933 7.54409 -0.439508 -0.123956 -0.889645 146 116 39
7.9546 2.2571 7.58349 -0.778044 0.20557 -0.593623 72 34 10
7.48425 1.64345 10.683 -0.581819 -0.203183 -0.78753 215 205 87
7.48928 1.60136 10.604 -0.519376 0.522081 -0.67652 234 226 95
7.49528 1.6059 10.6127 -0.505927 0.52966 -0.680807 234 226 96
7.50964 1.61116 10.6632 -0.655894 -0.341573 -0.67315 236 229 98
7.53548 1.6335 10.6262 -0.593818 -0.350592 -0.7242 216 206 86
7.51341 1.62057 10.6343 -0.596017 -0.167058 -0.785401 218 207 87
7.54478 1.6785 10.6329 -0.540328 -0.33784 -0.770656 206 194 81
8.14745 2.18891 10.4646 -0.34408 -0.0214136 -0.938696 81 55 20
8.18338 2.24057 10.4325 -0.501762 0.0254352 -0.864632 93 63 23
8.22204 2.28916 10.3331 -0.783188 -0.507483 -0.359274 124 89 30
7.83652 2.12508 9.43943 -0.285633 -0.927524 -0.241066 139 105 35
7.90115 2.15216 9.39309 -0.261908 -0.932844 -0.247399 141 107 36
7.47957 2.01022 8.27539 -0.0880593 -0.864076 -0.495598 151 119 40
7.37914 1.95836 7.88276 -0.47501 -0.414154 -0.776429 150 121 42
7.40397 1.98353 7.97906 0.0614775 -0.57081 -0.818777 151 122 41
7.4426 1.99751 8.07607 0.0724851 -0.538796 -0.839312 153 123 42
8.02686 2.22222 10.5126 -0.304134 -0.0570805 -0.950918 87 61 24
8.05699 2.26846 10.466 -0.603367 -0.224654 -0.765166 122 86 40
8.11694 2.24038 10.437 -0.569381 -0.195831 -0.798408 98 68 26
8.14446 2.33 10.4582 -0.929844 -0.322433 -0.177275 126 89 30
8.17339 2.29112 10.3886 -0.415979 -0.0325259 -0.908793 127 93 35
7.55427 2.0472 9.05136 -0.290087 -0.926368 -0.24019 135 102 34
7.63246 2.11125 9.12912 -0.286267 -0.927563 -0.240161 136 105 34
7.37076 1.97316 8.268 0.136555 -0.781203 -0.609158 150 117 38
7.38843 1.9771 8.19116 0.0592454 -0.614383 -0.786781 151 119 40
7.38936 1.97843 8.19722 0.152429 -0.646343 -0.747667 148 115 37
7.38728 1.97757 8.1962 0.146749 -0.644749 -0.750176 148 115 37
7.38521 1.97666 8.19508 0.14289 -0.640257 -0.754754 148 115 37
7.43799 1.9921 8.20256 0.0369917 -0.675318 -0.736599 151 119 40
7.42035 1.98681 8.15058 0.0934244 -0.434547 -0.895791 152 121 41
7.50402 1.8512 10.6151 -0.358266 -0.314101 -0.879196 79 59 15
7.78803 2.15402 10.6312 -0.482825 -0.146041 -0.863454 80 56 23
7.78857 2.15254 10.6271 -0.483651 -0.146015 -0.862995 80 56 23
7.82014 2.20743 10.5905 -0.680277 -0.256658 -0.68655 86 59 22
7.82114 2.20752 10.5896 -0.702612 -0.273009 -0.657117 86 59 22
7.93523 2.30883 10.4584 -0.965571 -0.202636 -0.16313 127 90 29
7.36565 2.13844 7.72748 -0.748009 -0.064796 -0.660518 81 44 7
8.06673 2.75254 7.68835 -0.917723 0.168996 -0.359479 125 109 76
8.14124 2.84617 7.68501 -0.772764 0.317772 -0.549414 41 33 16
7.73431 2.1737 10.7039 -0.527592 -0.228161 -0.818284 80 54 23
7.7099 2.2074 10.6847 -0.557397 -0.254001 -0.790438 85 59 23
7.733 2.26338 10.6548 -0.402582 -0.322048 -0.856862 118 86 37
7.81013 2.29985 10.6375 -0.366073 -0.320873 -0.873516 121 87 34
7.87731 2.30443 10.6336 -0.503168 -0.224631 -0.834484 121 88 36
7.87068 2.31237 10.4275 -0.962014 -0.235805 -0.137572 130 93 31
7.16236 2.11653 7.92748 -0.472853 0.011224 -0.88107 126 94 41
7.1874 1.83647 10.764 -0.801204 -0.171469 -0.573298 64 48 15
7.61209 2.24904 10.4214 -0.385566 -0.725874 -0.569601 123 87 29
7.55332 2.25608 10.3815 -0.23215 -0.873154 -0.428612 125 89 30
7.67223 2.27179 10.6221 -0.0446619 -0.875275 -0.481559 118 84 32
7.67814 2.27022 10.7032 0.107515 -0.714926 -0.690884 120 89 39
7.56306 2.26699 10.3878 -0.237393 -0.882106 -0.406859 126 90 30
7.51524 2.25118 10.3247 0.534645 -0.0819035 -0.841099 127 92 31
7.59994 2.27449 10.3576 0.187091 -0.440368 -0.878107 127 89 29
7.56581 2.2937 10.3629 -0.140314 -0.94199 -0.304903 129 92 30
7.5667 2.20746 10.0682 0.163518 -0.875499 -0.454712 132 95 30
7.15957 2.21744 7.91126 -0.545874 -0.0678853 -0.835113 77 43 19
7.39568 2.15952 10.433 0.361147 -0.60884 -0.706319 111 80 30
7.12242 2.23894 7.94269 -0.58003 -0.0851894 -0.810129 60 37 20
7.11807 2.29169 7.94995 -0.472768 0.0114358 -0.881113 18 8 4
7.35597 2.29836 10.5699 -0.845176 -0.435603 -0.30972 126 90 31
7.3187 2.25703 10.1018 -0.847051 -0.490194 -0.205461 137 103 32
6.77432 2.28456 8.39764 -0.479954 -0.41348 -0.773743 90 49 12
8.65616 4.32863 6.54774 -0.977744 -0.20496 0.0448193 127 82 13
8.65043 4.43641 6.51742 -0.789658 -0.608117 -0.0814483 127 81 14
6.78322 2.28189 9.93821 0.478997 -0.652328 -0.587393 139 107 44
6.64899 2.39963 8.55584 -0.472737 -0.136347 -0.870591 72 42 24
6.60656 2.58867 5.97031 -0.404934 -0.120652 -0.906351 86 71 33
7.80338 3.66107 7.84126 -0.795476 -0.158537 -0.584879 93 83 71
8.60137 4.46986 6.50376 -0.944195 -0.298857 0.138496 126 80 16
6.43243 2.26215 8.72779 -0.179453 -0.938744 -0.294205 130 97 35
6.16539 2.59599 6.21113 -0.258083 -0.210299 -0.942957 106 87 37
8.11428 4.68368 6.85034 0.130327 -0.252858 -0.958686 137 90 20
6.91432 3.592 8.36601 -0.434615 -0.579768 -0.689187 36 29 18
6.84911 3.59948 8.35712 -0.521914 0.0567068 -0.851111 80 72 56
6.75958 3.62517 8.42222 -0.497302 0.163587 -0.852015 133 125 103
6.77781 3.70712 8.40979 -0.537536 0.187314 -0.822173 104 91 62
5.85232 2.86823 6.36479 -0.0688232 -0.788097 -0.611691 155 131 73
5.87759 2.86784 6.33293 -0.22799 -0.912526 -0.339584 157 133 72
6.03872 3.36084 8.90045 -0.751276 -0.529297 -0.394245 138 92 19
6.11712 3.84783 8.82762 -0.575642 -0.0160365 -0.817545 121 79 16
5.31301 2.96099 10.6761 0.0993167 -0.88823 -0.448535 111 72 27
5.44945 3.35015 9.17215 -0.711511 -0.318497 -0.626348 141 93 18
5.52049 3.33391 9.12691 -0.513272 -0.235359 -0.825323 139 92 19
5.18163 3.05352 9.23485 -0.478878 -0.252358 -0.840828 102 61 23
6.04651 4.38857 8.73991 -0.789789 -0.231851 -0.567872 141 94 19
6.05365 4.58378 8.6661 -0.511744 0.0446137 -0.857979 133 88 15
5.16621 3.05874 11.1543 -0.598621 -0.112536 -0.793088 178 145 93
5.54437 3.77923 9.14818 -0.467738 -0.316984 -0.825071 148 100 25
5.50463 3.83576 9.13412 -0.507989 -0.0121239 -0.861278 137 90 19
5.39329 4.16005 9.16028 0.0568975 0.084359 -0.99481 146 99 22
5.49173 4.49515 9.09709 0.404634 0.0347928 -0.913816 145 100 22
5.4024 4.50344 9.07659 0.307135 -0.11323 -0.944906 145 99 21
6.64415 6.9804 8.38736 -0.927301 -0.368561 -0.0653817 157 132 58
6.32955 6.63384 8.36371 -0.952183 -0.206754 -0.224947 148 126 57
4.20244 4.48669 9.85608 0.485146 0.291632 -0.824369 143 93 17
4.34494 5.9577 9.7008 -0.32993 -0.89688 -0.294537 76 51 12
-7.47079 2.07644 10.6911 0.538979 -0.842202 -0.0140449 224 201 147
-7.59146 2.36738 11.8259 0.568473 -0.235948 -0.788142 237 212 168
3.73197 2.90447 10.2458 0.0193789 -0.826099 -0.563191 112 78 28
4.25979 2.94709 10.2497 -0.237009 -0.821834 -0.518088 104 74 21
-8.20864 0.361468 4.64432 0.852428 0.322464 0.411562 37 27 12
-8.48975 1.3967 8.46695 0.868258 -0.19542 0.456003 20 18 12
-8.46542 1.36681 8.43287 0.889404 0.0137738 0.456914 21 18 11
-7.18112 2.26288 10.7483 0.830505 -0.516971 0.20737 191 166 115
-5.00528 3.17247 13.2778 0.822678 0.163446 -0.544505 131 83 16
3.86652 2.91593 10.2024 0.0900147 -0.869003 -0.48655 121 84 29
3.93933 2.90071 10.1171 -0.43759 -0.52438 -0.730439 121 85 27
4.30877 2.96421 10.2199 -0.344485 -0.62437 -0.701065 94 64 15
4.36411 2.96913 10.1782 -0.133407 -0.783047 -0.607486 114 82 29
4.4195 2.96992 10.1298 -0.419578 -0.654458 -0.628998 118 85 28
4.46774 2.98038 10.0995 -0.430343 -0.584387 -0.687966 122 88 28
4.50623 2.97939 10.1247 -0.0480043 -0.963113 -0.264779 109 78 25
4.50835 2.91868 9.78964 -0.209237 -0.933988 -0.289632 127 91 29
-21.0369 -0.820593 3.93197 0.808022 0.586956 0.0508208 93 62 29
-7.18702 2.40273 10.8712 0.956134 -0.0710774 0.284175 96 70 31
-5.33799 3.0882 12.5566 0.900068 -0.425809 0.0925446 136 88 13
3.16048 3.66527 12.5268 -0.463168 -0.732714 -0.498604 161 133 76
4.45129 2.93229 9.83702 -0.286772 -0.926631 -0.24314 127 91 30
4.64695 2.92111 9.70179 -0.106228 -0.918635 -0.38056 125 88 29
4.6874 2.92878 9.68229 -0.0305664 -0.927288 -0.373098 124 88 29
4.72734 2.93768 9.66242 -0.0580167 -0.904897 -0.421658 125 88 30
6.6199 2.81504 8.75335 -0.363111 0.36804 -0.855977 110 96 72
6.74082 2.81502 8.69168 -0.507799 -0.256808 -0.822308 103 91 63
-8.84201 1.62785 8.31372 0.870677 -0.333185 -0.361815 22 21 16
-8.54461 1.78562 8.63878 0.897488 0.309536 0.314171 24 21 15
-7.60917 2.32768 10.152 0.512747 -0.648075 -0.563107 111 84 46
-7.09072 2.40065 10.5837 0.867823 -0.4114 0.278629 123 95 53
-6.97166 2.43419 10.4545 0.819176 -0.507542 0.267117 119 89 47
-7.02391 2.49813 10.6349 0.904523 -0.298014 0.305 100 68 30
-6.96638 2.52782 10.7367 0.85171 -0.467184 0.237337 93 56 18
4.06448 3.69566 12.0455 -0.493138 -0.300981 -0.816226 116 88 35
4.13909 3.72649 12.0325 -0.412268 -0.496287 -0.764025 116 88 36
4.16135 3.7334 12.0256 0.125344 -0.224515 -0.966376 115 87 36
6.58863 2.86141 8.76178 -0.461457 -0.040212 -0.886251 131 115 77
6.71935 2.86746 8.71697 -0.681605 -0.24848 -0.688239 137 122 82
-17.7692 -0.829556 2.17125 0.85942 -0.339239 0.382511 110 77 32
-9.23699 1.39697 7.12509 0.689438 0.724342 -0.00203094 18 15 12
-7.19012 2.4141 10.1105 0.338912 -0.927016 -0.16056 128 96 53
4.16362 3.71836 11.8818 -0.313294 -0.386262 -0.867553 130 103 49
6.64371 2.92827 8.76077 -0.410676 0.139228 -0.901089 85 75 51
6.69825 2.92368 8.71313 -0.499286 -0.099553 -0.860699 77 67 48
6.76825 2.87711 8.69134 -0.365961 -0.480347 -0.797082 141 125 84
-17.424 -0.845845 1.46187 0.613882 0.198071 0.764145 114 88 42
-17.2283 -0.721079 1.94792 0.726923 -0.449031 0.519571 113 80 32
-8.55474 0.652638 4.57791 0.75668 -0.297223 0.582318 45 34 17
-8.67186 2.09113 8.84118 0.929155 0.127079 0.347163 41 33 22
-6.2042 2.86756 11.0424 0.930653 -0.257677 0.259785 143 93 17
-6.1384 2.93279 11.1777 0.958155 -0.146021 0.246205 140 90 14
2.91584 3.34694 10.6308 -0.467324 -0.527306 -0.709617 148 98 20
6.57337 2.9593 8.74751 -0.453488 0.0562916 -0.889483 21 16 8
6.66931 2.97046 8.71249 -0.397252 -0.15474 -0.90457 21 17 9
6.76245 2.92104 8.66608 -0.420606 -0.124815 -0.898617 90 80 55
6.81459 2.91296 8.63462 -0.411835 -0.129304 -0.902038 101 91 64
-17.4571 -0.772361 1.4597 0.57826 0.151701 0.801625 115 89 44
-17.1059 -0.676544 1.75599 0.667629 0.241313 0.7043 116 82 28
-8.55904 0.832291 4.57134 0.725833 -0.554882 0.406537 39 27 12
-6.75715 2.69819 10.0998 0.870199 -0.380224 0.313342 169 146 102
-5.4413 3.47936 12.1376 0.451047 0.405177 -0.795228 143 95 14
3.30753 3.42548 10.5128 -0.517508 -0.0274745 -0.855237 145 99 19
6.78527 2.96517 8.64328 -0.47193 -0.147719 -0.869173 23 18 9
-7.91165 0.730781 4.01504 0.988832 0.148445 0.0132444 221 194 135
-7.89887 0.729521 4.01787 0.840337 0.345069 0.418046 221 194 134
-4.7439 4.11363 13.6189 0.500783 0.256068 -0.826829 46 25 9
3.2625 3.49388 10.473 -0.375313 -0.333986 -0.864635 147 102 24
3.7021 3.43681 10.2235 0.10454 0.305254 -0.946516 151 106 20
-18.1089 -0.157277 2.27076 0.766515 0.31482 0.559771 113 78 29
-8.15802 0.857319 4.26021 0.781549 0.193497 0.593077 145 123 77
-8.04796 0.930346 4.17771 0.809725 0.200715 0.551416 104 82 37
-8.29177 0.905434 4.34395 0.780378 0.199297 0.592699 179 159 121
3.35761 3.51243 10.3971 -0.358386 -0.538601 -0.762541 150 107 32
5.91507 3.14619 8.94196 -0.540685 0.250107 -0.803185 91 49 17
-17.9704 -0.133138 2.09588 0.766768 0.314897 0.559381 115 80 29
-8.16483 0.977664 4.26187 0.780309 0.198665 0.593002 147 124 88
-8.23544 2.33665 7.93249 0.90866 0.067786 0.411997 63 37 17
-6.72055 3.17406 10.0375 0.947452 0.252267 0.196713 142 122 70
-5.0144 4.37189 13.4211 0.0192533 -0.00874227 -0.999776 113 71 17
-5.01039 4.36299 13.4591 0.891313 0.0573635 -0.449745 112 72 17
-4.76115 4.4352 13.6917 -0.138473 0.050122 -0.989097 40 23 13
-4.58796 4.5216 13.5171 -0.15894 -0.120803 -0.97987 32 23 16
1.68839 3.90079 11.2239 0.521817 0.000515193 -0.853057 32 21 9
3.61925 3.58023 10.323 0.432291 -0.247281 -0.867166 154 114 35
3.62017 3.60391 10.2298 -0.185603 -0.868352 -0.459909 135 96 32
4.87935 3.35675 9.46871 -0.651105 -0.277354 -0.706496 149 99 20
-16.2058 -0.52126 0.460885 0.817586 0.0684601 0.571722 172 158 122
-18.1895 0.0175749 2.12529 0.767094 0.313503 0.559717 114 79 30
-19.2653 0.117761 2.60792 0.766634 0.314587 0.559739 115 79 29
-8.29413 1.19526 4.33057 0.769317 0.114094 0.628596 191 170 134
-8.28914 1.17734 4.33276 0.765044 0.00597215 0.643951 194 172 136
-6.85424 3.20955 9.9547 0.554572 -0.299305 -0.776445 144 124 68
-6.19477 3.96496 11.6665 0.125825 -0.253174 -0.959203 147 99 17
1.03439 3.54542 10.0143 0.950701 0.107599 -0.290845 95 69 31
5.30909 3.38447 9.30777 -0.449097 -0.16423 -0.87826 142 95 18
5.38308 3.38155 9.26485 -0.461333 -0.172522 -0.870292 145 98 21
5.43607 3.37621 9.21305 -0.584464 -0.495593 -0.642487 145 99 21
-8.38801 1.25972 4.43925 0.780354 0.127916 0.612115 80 66 37
-8.44927 1.34368 4.56297 0.816216 0.0369371 0.576565 38 26 13
1.03874 3.69768 10.1062 0.947201 0.0811846 -0.310191 69 47 18
1.04419 3.60445 10.1052 0.958894 0.0640553 -0.276439 70 46 19
5.34241 3.44175 9.25918 0.528466 0.278824 -0.801861 146 97 17
5.48542 3.39286 9.19185 -0.439275 -0.137575 -0.887756 140 94 18
5.78697 3.36483 9.0042 -0.290611 -0.928311 -0.231916 148 101 24
5.8306 3.36827 8.98325 -0.249548 -0.91473 -0.317796 150 105 27
-8.29838 1.33406 4.33195 0.765414 0.00717891 0.643498 194 172 129
-8.34009 1.40393 4.44434 0.854517 0.0261877 0.518762 74 59 28
-8.45876 1.49128 4.56875 0.870971 -0.118668 0.476788 40 27 15
-9.25645 2.33585 6.89702 0.803429 -0.286443 0.521969 60 39 22
-9.16435 2.5219 7.3529 0.743159 -0.207196 -0.636227 85 48 16
-9.00527 2.53644 7.2825 0.846658 -0.306737 -0.434837 96 58 20
1.01795 3.73516 10.0216 0.941193 0.136513 -0.309063 97 72 32
1.03488 3.79113 10.102 0.943133 0.124802 -0.308098 68 46 17
2.08348 4.17795 11.1596 -0.226078 -0.803816 -0.550243 103 63 14
5.03876 3.63693 9.52904 -0.439701 -0.080227 -0.894554 148 100 21
5.20131 3.59206 9.40281 -0.523378 -0.536181 -0.662257 152 105 23
5.87048 3.38661 8.97325 -0.326409 -0.738244 -0.590299 151 104 27
5.91238 3.39619 8.94847 -0.441944 -0.672939 -0.593161 149 102 23
5.89941 3.37615 8.92835 -0.432071 -0.770981 -0.467871 150 103 24
5.94858 3.38679 8.89241 -0.622523 -0.732962 -0.274285 149 103 23
5.94521 3.41077 8.9347 -0.431395 -0.570273 -0.699061 149 102 22
-8.97887 2.50362 7.12344 0.851897 -0.523702 0.00276735 94 56 19
-9.12502 2.56118 7.22083 0.989151 -0.133839 0.0605651 97 60 20
-9.01271 2.56845 7.23722 0.916981 -0.315722 -0.243855 104 65 24
-8.81386 2.57143 7.1747 0.880589 -0.139391 -0.452915 119 79 30
-7.11174 3.72852 10.1636 0.366931 0.106712 -0.924107 131 111 58
-5.61712 4.60814 12.4032 0.0785246 0.0518239 -0.995564 134 86 16
1.56571 4.30431 11.2149 0.372349 0.128804 -0.919111 34 21 9
3.46787 4.00532 10.2969 0.328044 0.32805 -0.885873 130 80 12
5.25245 3.61636 9.38465 -0.506972 -0.725204 -0.465895 151 103 21
5.2927 3.63281 9.35084 -0.454358 -0.74173 -0.493352 150 103 23
5.42809 3.59806 9.2523 -0.639863 -0.596844 -0.4841 148 99 19
5.98896 3.42711 8.91384 -0.69876 -0.531693 -0.478578 150 103 22
6.04195 3.41018 8.85651 -0.780296 -0.415907 -0.467076 147 100 20
-8.32889 3.69185 9.68715 0.941863 0.18222 0.282294 134 112 63
-8.43065 3.64456 9.64208 0.939973 0.176132 0.292282 130 109 60
-7.12996 3.90577 10.1655 0.264856 0.0930884 -0.959784 121 99 49
-6.35559 4.41529 11.4806 0.266151 0.0950803 -0.959231 149 100 20
-5.52021 4.69405 12.1219 0.238619 0.137018 -0.961398 139 90 16
-4.04839 4.12524 10.4698 0.91089 0.391352 -0.13086 139 88 15
2.74902 4.25555 10.7349 0.412587 -0.268681 -0.870392 131 80 13
3.64832 4.03277 10.2001 -0.203613 -0.45986 -0.864332 137 90 17
5.06417 3.71573 9.34626 -0.259015 -0.893549 -0.366717 181 148 89
-4.02543 4.19897 10.5779 0.925496 0.36051 -0.116144 135 86 14
-3.74472 4.05269 10.2103 0.906825 0.396119 -0.144076 135 87 15
2.72919 4.36496 10.7362 0.546085 0.0948607 -0.832341 130 79 13
5.05925 3.76736 9.29655 -0.380254 -0.637735 -0.669851 135 93 23
5.12924 3.71527 9.30456 -0.31848 -0.862922 -0.392347 186 156 98
5.12979 3.74629 9.22872 -0.301444 -0.843354 -0.444843 131 90 20
5.1771 3.71591 9.27759 -0.207218 -0.919555 -0.333885 188 158 99
5.25887 3.73773 9.22732 -0.309216 -0.635025 -0.707904 162 128 71
-3.9013 3.77783 9.16796 0.895588 -0.388308 0.217116 140 91 17
-5.86465 4.90839 11.8592 0.85891 0.202363 -0.470449 130 82 12
-5.78206 5.28857 12.6445 0.536169 -0.687979 -0.489089 117 77 23
-0.433167 4.25085 10.1642 -0.0561564 -0.97798 -0.201 122 97 44
0.828494 4.15076 10.1148 0.95894 0.0635531 -0.276396 100 75 33
4.653 3.88206 9.39407 -0.442436 -0.150923 -0.884009 127 80 14
5.05669 3.82355 9.25334 -0.679835 -0.459916 -0.571228 148 101 21
5.21329 3.76919 9.19647 -0.348866 -0.542743 -0.764018 133 93 24
5.2391 3.79161 9.18004 -0.60287 -0.277634 -0.747976 136 91 19
5.30451 3.74907 9.20131 -0.201038 -0.712287 -0.672481 150 113 57
5.37842 3.75 9.19666 0.333898 -0.754941 -0.564425 175 138 84
-2.72849 2.85757 6.63799 0.873519 -0.396035 0.283056 139 107 21
-4.19965 4.1444 9.60488 0.97727 0.168138 -0.129122 140 95 23
-5.56603 5.45217 12.7211 0.670509 -0.721805 -0.171508 36 22 9
-5.56247 5.54412 12.6611 0.702795 -0.598053 -0.385242 50 39 19
-0.289282 4.27757 10.083 -0.0800412 -0.972729 -0.217697 119 94 43
0.0377501 4.38752 10.1784 0.458393 -0.888137 -0.0329877 119 95 43
0.854533 4.94064 11.7225 -0.243789 -0.276875 -0.929466 40 27 12
1.00175 4.92242 11.4598 -0.167423 -0.508264 -0.84477 42 26 12
0.893834 4.90845 11.692 -0.311907 -0.409163 -0.857496 40 26 12
1.37631 4.69233 11.1124 -0.159197 -0.115714 -0.980442 40 25 12
4.57113 3.9809 9.43763 -0.62055 -0.176922 -0.763948 136 89 19
4.59151 3.9501 9.44212 -0.626571 -0.17965 -0.758377 134 86 16
-16.3855 0.539849 0.645318 0.600343 0.214773 0.770364 165 148 111
-4.22608 4.30128 9.60449 0.982159 0.154715 -0.106899 82 53 18
-5.52731 5.60873 12.5032 0.0956975 -0.980037 -0.17427 90 75 40
-0.0533657 4.43169 10.2271 0.4133 -0.909889 -0.0358569 119 95 41
0.900525 5.04515 11.4387 -0.152188 -0.498136 -0.853639 43 27 13
1.46671 4.87971 11.1598 -0.0423009 -0.294444 -0.954732 35 22 9
4.63573 4.03765 9.47682 -0.295219 -0.294835 -0.9088 127 81 15
6.78094 3.56674 8.48024 -0.3619 -0.614122 -0.701344 29 24 14
6.87053 3.53015 8.4388 -0.454431 -0.589041 -0.668224 26 22 10
-16.6196 0.816983 0.630448 0.574257 0.240519 0.782547 146 130 97
-8.51922 2.2054 4.46471 0.776615 0.0556621 0.627512 57 37 12
0.999418 5.03613 11.2957 -0.310262 -0.478866 -0.821234 43 28 13
1.55178 4.9385 11.215 0.538165 -0.00217748 -0.842837 30 20 9
2.72191 4.72605 10.6878 0.254609 0.137012 -0.957289 129 79 12
4.65696 4.16519 9.52463 -0.109442 0.239885 -0.964613 142 92 14
5.37935 3.97106 9.15653 0.209003 -0.393324 -0.895329 145 97 16
5.94197 2.71445 6.32712 0.00576627 -0.991212 -0.132154 132 110 53
-8.49909 2.39232 4.38856 0.78659 0.207366 0.581614 133 104 54
-9.99098 2.89813 5.38464 0.993049 -0.0994283 0.0629827 137 97 26
5.03156 4.19564 9.41774 -0.0724119 -0.104698 -0.991864 145 101 26
-21.8339 2.66936 3.71982 0.766573 0.314776 0.559716 115 78 26
-8.38919 2.34976 4.24183 0.860827 0.140514 0.489114 206 176 120
-9.95954 2.93441 5.20733 0.844159 0.278453 0.458105 171 139 79
-9.1454 3.40637 6.25324 0.84846 -0.036882 -0.527973 151 104 24
1.53046 5.30779 11.2446 0.621365 0.0368061 -0.782656 29 20 9
6.02253 2.74913 6.30518 -0.0845261 -0.366762 -0.926467 135 119 77
6.03905 2.7426 6.28661 -0.390658 -0.738636 -0.549366 128 112 70
6.20561 2.72946 6.24443 -0.721316 -0.593575 -0.356892 83 65 28
-8.49694 2.56778 4.37246 0.791455 0.232028 0.565475 189 157 103
-9.85762 3.05648 5.08571 0.975839 0.0143014 0.21802 193 159 103
-9.99392 3.10905 5.20735 0.885759 0.266584 0.379952 173 140 77
-2.65983 3.19026 6.20055 0.914192 -0.194269 0.355685 117 145 29
-6.2499 5.80566 11.5132 0.827669 -0.558224 -0.0578843 124 99 39
5.70365 2.96205 6.57355 -0.227592 -0.962319 -0.14881 139 115 50
6.11195 2.77685 6.27759 0.0275374 -0.0937254 -0.995217 132 112 63
6.22898 2.75138 6.22186 -0.573846 -0.68033 -0.455907 96 78 37
-16.492 1.19431 0.446963 0.517555 -0.24593 0.819546 158 143 107
-16.8649 1.31765 0.69877 0.59081 -0.679625 0.434802 152 138 101
-17.1426 1.36425 0.766016 0.612234 -0.7699 0.180066 134 120 87
-9.95854 3.26764 5.38141 0.975602 0.219546 -0.000849068 145 105 29
-2.46812 3.23365 6.07109 0.872273 -0.317656 0.3718 112 138 26
-3.54508 4.2396 8.08944 0.898991 -0.312383 0.306972 138 112 45
-3.35607 4.20458 8.01655 0.892088 -0.369874 0.259561 143 118 49
1.26969 5.56782 11.2106 -0.371335 -0.611917 -0.698332 36 22 11
1.60712 5.47839 11.2452 0.659763 -0.137789 -0.738733 32 20 8
4.7686 4.42145 9.32353 -0.667814 -0.635337 -0.387776 137 89 16
-16.2119 1.39601 0.635299 0.555314 -0.206963 0.805476 154 139 103
-8.56277 2.84738 4.48021 0.780333 0.198864 0.592903 197 165 111
-2.37246 3.26108 5.97443 0.783579 -0.496099 0.374018 112 135 26
-2.38388 3.33071 6.07029 0.854895 -0.361629 0.371993 114 130 28
-2.29232 3.29059 5.96872 0.930517 -0.224833 0.289117 116 132 30
1.41175 5.60169 11.1628 0.629548 -0.0553301 -0.774989 31 20 9
1.56056 5.54546 11.1627 0.774407 -0.342473 -0.531983 28 20 9
1.61511 5.62585 11.1397 0.83752 -0.202015 -0.507691 26 19 7
1.65915 5.55349 11.2034 0.615564 -0.234868 -0.752275 36 23 9
2.43874 5.48824 10.9436 -0.43731 -0.798835 -0.413065 105 66 19
5.08068 4.40847 9.25492 -0.416254 -0.1643 -0.894281 137 95 25
5.17806 4.39908 9.20067 -0.492131 -0.212362 -0.844221 133 92 24
5.37127 4.32179 9.13585 -0.368968 -0.68505 -0.628147 182 144 89
6.05537 4.11879 8.70699 -0.0401641 -0.0242542 -0.998899 143 96 22
-16.2323 1.69066 0.629678 0.546323 -0.261217 0.7958 153 139 101
-16.2323 1.69066 0.629678 0.546323 -0.261217 0.7958 153 139 101
-8.25796 2.8998 4.2632 0.797173 0.373667 0.474224 205 171 116
-9.1928 3.19185 4.69796 0.952546 -0.0407051 0.301662 200 165 109
-2.63005 3.26454 5.67809 0.460372 -0.855593 0.236683 115 134 29
-2.20819 3.31251 5.88778 0.889234 -0.27422 0.366152 117 113 29
-2.30124 3.38543 6.00925 0.927667 -0.159937 0.337422 116 112 28
-2.31954 3.42786 6.07045 0.755322 -0.574374 0.315568 119 107 29
-2.04837 5.67574 10.4886 0.143181 -0.985299 -0.0931941 190 156 92
-1.44538 5.89154 11.1203 -0.0816612 -0.526435 -0.846285 137 114 50
1.90354 5.68072 11.155 -0.209457 -0.971539 -0.110637 90 60 22
5.22064 4.45124 9.1199 -0.573748 -0.00170788 -0.81903 141 97 21
5.38794 4.39494 9.02468 -0.571598 -0.164869 -0.8038 143 95 23
5.45263 4.34132 9.02015 -0.121807 -0.553634 -0.823804 134 88 19
-9.1657 3.4138 4.78044 0.959125 -0.0134098 0.282665 198 161 106
-9.17468 4.16666 6.37025 0.843045 0.441466 0.307218 153 105 22
-2.66638 3.33296 5.61462 0.294648 -0.95069 0.0968069 115 125 29
-2.27081 3.43448 5.84032 0.865182 -0.324053 0.382687 129 100 36
-2.22212 3.40983 5.92734 0.901489 -0.252579 0.351456 125 102 33
-2.27197 3.47803 6.00898 0.918959 -0.192514 0.344169 127 100 34
1.36005 5.83443 11.1728 -0.504312 -0.731377 -0.459083 32 20 9
1.36005 5.83443 11.1728 -0.504312 -0.731377 -0.459083 32 20 9
1.60716 5.77998 11.1126 -0.177577 -0.15356 -0.972052 26 19 8
-9.93652 3.88431 5.20673 0.902643 0.0907674 0.42071 162 125 62
-9.78055 3.90198 5.49 0.835933 0.0481344 -0.546716 161 115 31
-3.42993 5.69634 9.8212 0.288068 -0.331027 -0.898575 151 126 56
1.30697 5.93763 11.0798 0.0837743 -0.671506 -0.736248 35 22 12
1.37607 6.00476 11.0715 0.677233 -0.574086 -0.460196 40 27 11
1.47357 5.97189 11.0979 0.69992 -0.288389 -0.653409 39 27 11
5.08287 4.71641 9.2928 -0.497226 -0.0068818 -0.867594 153 107 29
5.20904 4.69609 9.21791 -0.0150253 0.133545 -0.990929 150 105 27
6.53814 4.14338 8.44559 -0.83217 -0.438417 -0.339536 133 84 16
6.14177 2.9871 6.23765 -0.0420816 -0.993338 -0.107283 148 121 57
6.12384 2.97112 6.15108 -0.157629 -0.971183 -0.178763 154 120 57
6.12384 2.97112 6.15108 -0.157629 -0.971183 -0.178763 156 125 59
6.13687 2.97849 6.22415 -0.0923592 -0.991872 -0.0875198 141 112 53
6.17865 2.98807 6.21708 -0.0754734 -0.99262 -0.0949182 145 118 55
6.17732 2.98807 6.23223 -0.108067 -0.99082 -0.0812246 134 106 50
6.17014 2.93862 6.10935 -0.1584 -0.971154 -0.178241 145 116 57
6.21325 2.97732 6.17267 -0.178836 -0.966144 -0.185967 145 118 55
6.20367 2.92758 6.12469 -0.0982202 -0.993368 -0.0597733 133 109 50
-16.8244 2.14187 0.617874 0.574223 0.305807 0.75944 150 136 96
-9.95534 4.01272 5.33521 0.948955 0.136728 -0.284237 144 104 30
1.29444 3.03103 5.40637 0.200938 -0.97945 0.0173538 139 107 43
1.21987 3.2697 5.78284 -0.238107 -0.901664 -0.360979 120 86 32
1.37915 3.22976 5.76708 0.0808954 -0.996684 -0.00879543 115 85 34
1.48516 3.13253 5.6332 0.022399 -0.972694 -0.231008 119 89 40
1.64764 3.10332 5.52186 0.043251 -0.997558 -0.0548413 120 93 42
2.65326 2.94244 5.47446 0.0914625 -0.995791 -0.00597599 67 73 5
1.26764 5.93063 10.8107 0.654658 -0.542949 -0.525955 51 35 14
1.48596 5.9839 10.8623 -0.264008 -0.735473 -0.624002 107 87 45
1.52985 5.98368 10.9423 -0.326937 -0.676277 -0.660122 96 78 42
2.30831 5.761 10.6952 -0.195429 -0.883724 -0.425252 93 74 31
3.5533 5.44149 10.255 -0.555475 -0.494081 -0.668829 146 99 28
5.23074 4.71186 9.2149 -0.399316 0.0934679 -0.912036 151 106 26
5.29804 4.7158 9.18782 0.0659452 -0.421683 -0.904342 157 112 37
5.34051 4.64681 9.12435 0.327369 -0.193471 -0.924878 157 112 34
6.2351 2.94823 6.08617 -0.0917262 -0.991899 -0.0878746 148 119 58
6.32206 2.94072 6.06789 -0.496409 -0.867275 0.0375858 148 123 58
-17.0704 2.38267 0.651096 0.563895 -0.667761 -0.485919 149 136 95
-22.1456 4.73879 4.13649 0.619372 -0.227323 0.751467 101 71 29
-19.9415 4.41757 3.99 0.663467 0.234387 0.710545 92 68 31
-10.0177 4.1704 5.36229 0.974912 0.192288 0.112126 141 100 27
1.34179 3.07684 5.37553 0.257121 -0.914631 -0.311992 137 105 42
1.32772 6.04537 10.6815 0.531238 -0.840569 -0.105966 127 104 49
1.28038 6.1001 10.7144 0.492929 -0.778563 -0.388408 128 105 49
1.26339 6.03493 10.7824 0.509074 -0.723303 -0.466557 92 72 34
1.50135 6.1329 10.8624 -0.417523 -0.670316 -0.613475 124 99 39
5.47723 4.68435 8.99556 -0.727789 -0.385761 -0.56702 153 107 29
6.01773 4.46446 8.67485 -0.547299 -0.0678128 -0.834185 147 102 22
6.04546 4.42642 8.69405 -0.434005 -0.0685834 -0.898296 141 95 19
-16.3157 1.20737 -1.64799 0.777018 0.361341 0.515437 122 98 51
-8.01501 3.43108 3.96132 0.840514 0.10722 0.531075 206 174 118
-8.60704 3.66048 4.40481 0.788131 0.0481775 0.61362 203 169 112
-10.0486 4.30133 5.07188 0.911475 0.11228 0.395735 184 151 93
-9.9223 4.19068 5.03624 0.964941 0.208606 0.159286 189 155 99
-9.97737 4.28928 5.22312 0.963316 0.179811 0.199222 154 117 52
1.66072 3.15216 5.34943 0.0310137 -0.999484 -0.00830986 102 75 24
1.47394 6.18561 10.759 -0.453846 -0.707844 -0.541277 135 111 45
1.64735 6.13917 10.5995 -0.379263 -0.615457 -0.690922 140 116 48
4.91636 4.96425 9.21414 -0.564195 -0.602396 -0.564627 140 96 26
5.42528 4.75718 8.96592 -0.671727 -0.448679 -0.589467 144 101 35
6.07288 4.49255 8.62692 -0.350136 -0.100451 -0.931297 127 81 10
6.16593 4.49545 8.59986 -0.427858 0.121655 -0.895621 132 84 19
6.30609 4.4459 8.53152 -0.467768 0.0273116 -0.883429 139 91 19
6.29833 4.37034 8.49378 -0.180189 0.0676322 -0.981304 141 93 20
-8.59966 3.92894 4.59147 0.738672 -0.211438 0.640045 188 152 97
0.869091 3.10218 5.01714 0.0908203 -0.995798 0.011784 146 116 48
1.7347 6.16621 10.4238 -0.388435 -0.65734 -0.645772 145 122 52
3.99854 5.52759 9.9123 -0.318029 -0.866471 -0.384818 139 91 23
5.49615 4.80122 8.94116 -0.691616 -0.380146 -0.61413 146 101 25
5.58666 4.81563 8.9167 -0.387831 -0.0857525 -0.917733 141 95 19
6.01577 4.63112 8.66833 -0.655177 -0.101709 -0.748598 146 102 24
6.26313 4.48969 8.50399 -0.228271 -0.469866 -0.852712 138 89 18
-16.3992 2.69736 0.572984 0.488674 -0.411026 0.769581 157 141 104
0.8905 3.08313 4.90729 0.214496 -0.974283 0.0690289 151 121 52
1.77752 6.17016 10.3412 -0.391528 -0.8236 -0.410352 148 125 54
2.11331 5.95033 10.1192 -0.235248 -0.970326 -0.0559065 151 128 55
2.11436 5.96653 9.97077 0.194457 -0.979857 0.0454677 152 130 57
2.29254 5.98028 10.0152 0.491049 -0.870573 0.0312059 155 133 59
2.23197 6.00897 10.1561 -0.155115 -0.987589 -0.024642 152 129 55
2.32601 6.01009 10.2044 0.0533282 -0.998405 0.0185626 151 128 55
2.35001 6.00666 10.0698 -0.0261238 -0.99957 0.0133333 156 133 59
2.69622 6.02124 10.2795 0.122242 -0.992409 0.0134979 136 112 47
3.25499 5.82088 10.1287 0.0220433 -0.999722 0.00836405 113 92 40
5.4358 4.88152 8.93053 -0.611542 -0.464527 -0.640492 142 98 24
5.53336 4.89574 8.91455 -0.491602 0.0314579 -0.870252 142 96 19
5.69001 4.83295 8.88712 0.0935773 0.164266 -0.981967 142 96 18
6.14128 4.54825 8.53176 -0.627267 -0.107146 -0.771399 135 88 23
2.13996 5.92289 9.8324 0.490027 -0.870664 0.0426406 152 129 57
2.17924 6.01385 10.0212 0.454203 -0.889888 0.0424176 154 132 59
2.20788 5.96552 9.89077 0.306599 -0.950399 0.0523352 155 133 59
2.21636 5.94736 9.78564 0.208912 -0.976504 0.0528716 155 133 59
2.27577 6.00334 9.94569 0.388144 -0.920354 0.0478751 157 135 61
2.33352 5.97772 9.87817 0.332731 -0.9417 0.0499097 159 135 62
2.41109 5.93823 9.90045 0.569297 -0.822032 0.0127889 159 135 61
2.44599 5.96684 9.8263 0.338815 -0.939593 0.0486759 161 137 63
2.77904 6.03706 10.091 0.13826 -0.989775 0.0350647 149 125 54
2.90165 6.03021 10.1525 0.215491 -0.976149 0.0264116 138 114 48
3.21278 6.0218 10.0871 -0.315598 -0.859625 -0.401799 130 107 45
4.91082 5.25227 9.31706 -0.444191 -0.656045 -0.610164 143 94 22
4.9793 5.29471 9.28688 -0.716797 -0.347356 -0.604604 149 103 24
5.9351 4.88378 8.8526 -0.77871 -0.199492 -0.594823 148 103 23
5.99984 4.81981 8.73007 -0.820775 -0.197469 -0.536036 147 103 24
6.46088 4.53414 8.44408 -0.462467 0.12838 -0.877293 131 84 13
1.38025 3.04375 4.6444 0.0140869 -0.999881 0.0062373 141 110 44
2.61417 6.02035 9.91029 -0.0295492 -0.999315 0.0222788 164 138 64
2.92954 6.04254 9.92766 0.0962186 -0.995317 0.00931197 157 131 59
3.0636 6.06346 9.91477 -0.0673673 -0.997433 0.0242569 148 124 54
5.25659 5.17813 9.05844 0.466938 0.146169 -0.872126 144 100 19
5.4331 5.1088 8.98929 -0.303851 -0.0736312 -0.94987 148 101 26
5.4331 5.1088 8.98929 -0.303851 -0.0736312 -0.94987 148 103 26
5.53985 5.08487 8.91211 -0.304737 -0.0989029 -0.947287 140 94 20
6.09578 4.79586 8.60587 -0.405462 0.0208232 -0.913875 124 79 13
6.17805 4.76844 8.61344 -0.520153 -0.407268 -0.750715 132 84 18
6.44329 4.65508 8.46446 -0.684601 -0.0397111 -0.727835 132 85 14
1.38493 3.038 4.51782 0.0716788 -0.997245 0.0191025 143 113 46
2.41195 6.05875 9.69094 -0.396974 -0.641134 -0.656779 160 136 62
2.52343 6.1441 9.76554 0.179966 -0.981651 0.0630353 166 140 68
2.67373 6.03788 9.62057 -0.0131892 -0.999087 0.0406384 167 141 69
5.38106 5.24028 9.04797 0.258718 0.124185 -0.957937 144 98 24
5.44827 5.25224 9.01565 -0.569463 -0.222027 -0.791465 144 100 26
5.50386 5.17824 8.98106 -0.149604 -0.0702775 -0.986245 144 100 23
-15.9427 2.86537 -0.188074 0.501937 0.0823841 0.860972 47 37 28
2.52888 6.03507 9.52029 -0.129575 -0.987693 -0.0876014 160 136 62
2.58284 6.07765 9.4959 -0.220239 -0.975437 -0.00408891 161 137 64
2.61036 6.0355 9.36142 -0.484144 -0.705568 -0.517473 158 132 58
2.6654 6.06337 9.59455 -0.430347 -0.898668 -0.0848351 167 140 67
2.74736 6.09568 9.57513 -0.361594 -0.931199 -0.0460196 166 140 67
3.80666 6.13791 9.88385 -0.0344944 -0.984169 -0.173844 121 98 42
5.56607 5.19806 8.90159 -0.611842 -0.413318 -0.674401 142 97 21
5.54941 5.21936 8.93986 -0.679469 -0.413361 -0.606181 142 96 21
6.95812 4.54678 8.15314 -0.869129 -0.27042 -0.414111 125 77 13
2.91185 6.06182 9.28175 0.0715252 -0.994847 0.0718584 162 138 65
3.35432 6.12938 9.53527 -0.010346 -0.999045 0.0424412 169 141 68
3.4599 6.09447 9.55399 -0.102247 -0.961007 -0.256927 164 137 65
3.53843 6.13111 9.55545 0.0640011 -0.980599 -0.185283 164 137 65
3.47715 6.09832 9.58606 -0.00260076 -0.982353 -0.187019 161 135 63
3.65425 6.19361 9.71271 0.209369 -0.977691 0.0169086 149 125 55
3.71144 6.22655 9.79392 0.0289681 -0.970495 -0.239374 139 116 50
3.71087 6.21498 9.78929 0.0175876 -0.96419 -0.26463 140 117 50
5.49533 5.40057 8.99161 -0.598789 -0.24771 -0.761638 143 99 24
5.64414 5.24808 8.88015 -0.403307 -0.808904 -0.427807 142 97 21
-16.5526 3.94886 0.630451 0.687158 0.193083 0.700381 145 130 88
2.81512 6.08979 9.26463 -0.0475979 -0.997105 0.0592916 159 135 61
3.43065 6.08371 9.26767 -0.0402766 -0.998973 -0.0207657 175 145 74
3.50135 6.14778 9.41433 0.143184 -0.977789 -0.15306 170 141 69
3.89259 6.05393 9.47687 0.0569819 -0.880322 -0.470942 148 124 55
5.27662 5.63846 9.23725 -0.681682 -0.214497 -0.6995 140 95 21
5.57515 5.44374 8.96256 -0.76668 -0.466217 -0.441412 139 92 19
3.12099 6.10934 9.14748 -0.573575 -0.784566 -0.235516 163 137 65
3.24696 6.06233 9.0785 -0.483113 -0.819737 -0.307624 165 139 66
2.39841 2.91506 4.01833 0.239808 -0.962293 -0.128394 131 101 39
3.31274 5.96968 8.86012 -0.591385 -0.772117 -0.232595 168 139 66
4.01909 6.16411 9.35749 0.241657 -0.921054 -0.305388 153 128 58
-17.0021 4.70537 0.691106 0.58987 -0.380302 0.712337 106 95 63
-15.9324 4.37733 0.0509505 0.670523 0.737254 -0.0827937 128 112 81
-12.8236 4.52049 1.28936 0.625815 0.266809 0.732918 77 65 42
-17.1577 2.75636 -2.62725 0.9518 0.151937 0.266445 86 72 47
-16.6628 5.01161 0.542972 0.497983 -0.287002 0.818317 49 43 28
-2.08228 3.49015 3.05354 0.559998 -0.564326 0.60658 136 112 50
-2.07656 3.54997 3.11766 0.634659 -0.474581 0.609902 159 131 67
-17.1956 2.9992 -2.62464 0.986389 0.162912 -0.0222759 83 70 45
-17.196 3.01943 -2.62397 0.982203 0.187815 0.00138949 83 70 45
-12.0324 4.70374 1.26067 0.692305 0.236686 0.681684 88 75 49
-7.84043 4.93084 3.07603 0.779001 0.242724 0.578138 104 86 54
-2.05465 3.53329 2.9982 0.706882 -0.392573 0.588391 125 117 37
-2.06885 3.6047 3.07162 0.693956 -0.421617 0.583665 154 133 65
-13.0188 4.8292 1.0305 0.684229 0.280085 0.673337 89 76 50
-10.9162 4.43342 1.02417 0.456331 -0.400689 0.794487 90 76 50
-2.16237 3.66523 3.01624 0.447706 -0.736947 0.506428 124 130 40
-2.03307 3.63644 3.01189 0.672305 -0.448694 0.588796 131 117 44
-2.05377 3.71949 3.09434 0.642747 -0.51087 0.570866 156 131 65
4.25494 2.93247 4.14044 0.0596534 -0.950259 -0.305694 129 143 48
-17.2603 3.27314 -2.62795 0.883905 0.142332 -0.445482 83 69 45
-17.18 3.44968 -2.47149 0.703605 0.0420017 -0.709349 123 109 82
-13.3731 4.90236 0.64 0.650599 0.209498 0.729953 86 72 46
-2.04396 3.84785 3.11144 0.771044 -0.297957 0.562773 156 133 68
4.28632 2.94651 4.11873 0.0227531 -0.961827 -0.272712 129 144 50
4.32574 2.93921 4.13963 -0.181072 -0.96998 -0.162332 139 162 54
4.35163 2.92007 4.09537 -0.353831 -0.933887 -0.0515578 141 162 57
6.88598 5.5693 8.42388 0.302929 -0.944207 -0.129256 125 77 17
-17.2638 3.55575 -2.62217 0.693217 -0.0534574 -0.718744 82 68 43
-17.2719 3.71062 -2.49362 0.649173 -0.0719972 -0.757226 126 111 83
-11.4253 4.80956 1.01856 0.697188 0.224285 0.6809 96 82 54
-2.05064 3.78509 2.92653 0.317893 -0.948087 -0.00863406 122 124 38
-1.92533 3.77471 2.9471 0.671046 -0.574884 0.468194 127 111 41
-1.88505 3.8187 2.99729 0.740036 -0.425397 0.520946 145 125 58
-1.9052 3.83222 3.02035 0.765774 -0.424412 0.483182 156 136 68
-1.8936 3.80583 3.03976 0.65508 -0.478629 0.584623 147 122 60
4.30596 3.01718 4.13633 -0.347734 -0.933917 0.0829406 133 157 48
4.33836 2.93567 4.09653 -0.137563 -0.990352 -0.0167331 129 144 50
-16.9251 3.88174 -2.26465 0.659579 0.126094 -0.740983 110 95 66
-10.9715 4.46022 0.603392 0.65253 0.315458 0.688978 95 81 54
-10.8805 4.70884 0.632053 0.602973 -0.00474562 0.797748 95 81 53
-11.2183 4.88741 0.724137 0.734425 0.316504 0.600372 96 82 55
-1.86267 3.93943 2.99072 0.748918 -0.327783 0.575917 149 138 63
1.94134 3.09063 3.29305 -0.0717668 -0.991016 0.112855 132 103 48
3.26599 6.06182 7.37649 -0.40499 -0.536292 -0.740523 154 129 60
3.35135 6.08221 7.29099 -0.208984 -0.396995 -0.893712 161 133 66
3.42844 6.13032 7.25326 -0.179234 -0.378014 -0.908284 159 132 65
-14.8261 4.92204 -1.27584 0.469875 -0.771691 0.428614 142 128 112
-13.2518 4.92439 -0.837949 0.250821 -0.909006 0.332863 122 108 76
3.98913 3.15638 3.84601 0.104391 -0.989191 0.102973 129 103 49
4.02689 3.16481 3.86817 0.0965626 -0.984741 0.144776 96 80 28
6.56028 6.28096 8.36438 -0.367201 -0.321315 -0.872881 105 91 40
-12.6664 3.66803 -2.40869 0.796505 0.42702 0.428057 158 139 108
3.72222 3.08434 3.51518 0.581501 -0.812943 -0.031316 163 133 74
3.67452 3.33593 3.69474 0.144783 -0.956113 0.254729 164 136 77
6.9697 6.1996 8.12119 -0.489662 -0.0231652 -0.871605 76 62 32
1.96699 2.61468 2.10531 0.114098 -0.965953 0.232198 66 55 36
-13.7877 4.96943 -2.12474 0.374488 -0.230072 0.898235 161 142 112
1.94166 2.56334 2.01254 0.89988 -0.352104 0.257368 74 61 44
6.96245 6.51372 8.03456 -0.603961 -0.479849 -0.636377 131 108 44
-12.5824 4.78634 -2.17716 0.396528 -0.400304 0.826149 163 144 114
-13.096 5.40143 -1.91622 0.378352 -0.21588 0.900136 103 87 55
-12.2928 4.94118 -2.09321 0.367194 -0.333529 0.86829 169 149 118
1.895 2.61744 1.85808 0.728099 -0.574924 0.373276 55 44 30
-12.2006 4.83773 -2.27147 0.499238 0.0834319 0.862439 163 144 114
-12.717 5.42937 -1.99006 0.317709 -0.614403 0.722198 102 87 58
2.44234 2.83991 2.25589 0.605143 -0.708171 0.363726 77 63 45
-11.9114 5.07744 -2.22198 0.303586 -0.278031 0.911336 166 150 119
-12.1374 5.13119 -2.21886 0.478819 0.161313 0.862966 149 133 101
-11.9768 5.27605 -2.03388 0.393324 -0.283844 0.874488 104 89 57
2.75038 2.71052 2.21726 0.775301 -0.595267 0.211105 77 63 42
3.71433 4.29066 4.08458 -0.0777058 -0.958383 -0.274707 144 150 57
3.75141 4.30965 4.11501 -0.0273022 -0.988719 -0.147272 144 151 57
2.41528 2.74495 2.02766 0.537064 -0.753315 0.379578 75 62 45
2.52436 2.7485 2.09433 0.777744 -0.560655 0.284218 75 62 42
3.76688 4.30362 4.06134 0.198898 -0.917738 -0.343796 135 137 61
3.76524 4.3261 4.00869 -0.0538639 -0.72991 -0.681418 69 62 19
3.82199 4.30994 4.03816 0.210133 -0.866003 -0.453743 75 68 23
3.95699 4.35902 4.09536 0.0968915 -0.76938 -0.631401 85 71 26
-11.042 5.08661 -2.49783 0.208904 -0.794885 0.569664 68 61 42
-10.7684 5.19223 -2.37829 0.419151 -0.247693 0.873476 92 79 56
-10.0735 5.04089 -2.50732 0.309513 -0.950878 -0.00573644 94 82 56
2.48108 2.71957 1.70749 0.751892 -0.540584 0.377397 27 21 16
3.04854 3.11312 2.03854 0.876367 -0.478127 0.0580997 36 30 21
3.06354 3.16898 2.10379 0.773057 -0.601631 0.201057 62 49 29
2.9318 3.02971 1.86831 0.898264 -0.433303 0.0732839 21 18 10
2.92627 3.07227 1.89204 0.82638 -0.540216 0.158946 19 16 8
2.7978 2.92673 1.7066 0.83617 -0.547787 0.0273877 19 17 10
1.77181 3.1647 1.29589 0.571514 -0.805483 0.156744 107 119 47
2.85595 3.07226 1.72179 0.68836 -0.620903 0.375021 39 34 24
2.89769 3.10336 1.76334 0.466994 -0.829319 0.306832 40 31 17
2.90732 3.04949 1.64334 0.594393 -0.67332 0.439701 44 39 27
-0.509662 -3.23375 11.5876 -0.38711 -0.174514 -0.905367 120 96 54
-1.51264 -4.10183 11.8678 -0.264663 0.563291 -0.782724 253 236 181
-3.58267 -5.14608 4.5077 -0.00301602 0.894367 -0.447324 175 147 101
-1.68879 -4.16051 11.9282 -0.070311 0.697593 -0.713036 248 228 172
-3.9277 -5.30667 4.16348 0.835128 0.533252 0.134922 174 145 100
-3.66686 -5.05384 4.549 0.270469 0.885435 -0.377956 182 152 108
-3.90965 -5.16369 4.82489 0.140435 0.98992 -0.0183366 190 161 120
-2.76539 -4.82063 12.9208 -0.292718 0.467399 -0.834179 198 171 124
-4.12059 -5.17394 4.23588 0.654607 0.742973 0.139573 182 152 108
-4.10267 -5.18701 4.2876 0.648934 0.726384 -0.226387 182 152 109
-4.16886 -5.26811 5.20224 0.207587 0.960457 -0.185553 222 208 183
-3.68102 -4.98451 7.02876 0.592905 0.80526 -0.00460663 148 125 78
-4.32141 -5.26194 4.93163 0.177705 0.980919 -0.0788616 221 205 181
-4.38585 -5.28752 5.02115 0.37613 0.912032 -0.163473 231 219 200
-3.18051 -4.84438 12.9833 -0.192311 0.732439 -0.653108 172 147 101
-4.48432 -5.48315 13.4405 -0.369943 0.2667 -0.889951 156 133 85
-4.48696 -5.48488 13.4507 -0.369169 0.259479 -0.892404 156 133 85
-4.46124 -5.29959 13.4514 -0.340214 0.116946 -0.933048 148 125 76
-4.76508 -5.16398 13.6706 -0.0743157 0.0305921 -0.996765 131 108 61
-4.83557 -4.32454 4.96537 0.584945 0.806662 0.0844709 172 146 97
-5.27479 -4.76169 6.6645 0.998509 0.0221619 -0.0498857 162 137 87
-3.62907 -3.60431 12.9697 -0.268296 -0.18536 -0.945335 202 173 124
-4.33193 -3.89142 13.3957 0.235262 0.132727 -0.962827 181 154 110
-6.50165 -5.23109 9.66489 0.356723 0.775204 -0.521351 151 128 76
-6.93828 -5.32395 9.28347 0.999283 0.0213052 -0.0313032 153 128 75
-6.64929 -5.1232 12.4383 0.903735 -0.291733 -0.313298 158 136 87
-6.53047 -5.01628 12.617 0.506417 -0.674841 -0.536779 164 141 94
-4.35291 -3.60755 13.3082 -0.0689687 0.41565 -0.906906 189 161 117
-6.94657 -5.14152 9.26402 0.773754 0.186463 -0.605422 152 130 76
-6.59324 -4.88982 12.43 0.945416 -0.243808 -0.216207 170 146 100
-6.98764 -5.05095 9.10504 0.953908 0.204817 -0.219341 148 126 72
-6.75094 -4.82235 10.0467 0.791871 0.388815 -0.470918 149 127 74
-6.80339 -4.75809 9.90718 0.756325 0.650443 -0.0699762 151 129 76
-4.36128 -3.07293 11.6673 0.632708 -0.56811 -0.526243 141 116 70
-4.68754 -3.2748 12.8133 0.779771 -0.32373 -0.535869 144 119 74
-4.70131 -3.1329 12.6265 0.716897 -0.570937 -0.400112 76 56 14
-4.36209 -3.04909 11.7233 0.434851 -0.705502 -0.559617 110 86 42
-4.21853 -2.90169 11.684 0.687394 -0.594714 -0.416899 71 51 15
-4.49074 -2.99227 13.6108 -0.250008 -0.235841 -0.939082 49 33 19
-6.81925 -4.3428 9.23597 0.817124 -0.223375 -0.531425 171 144 96
-6.67622 -4.31608 9.35909 0.766817 -0.353357 -0.535846 171 145 97
-6.80371 -4.20159 9.24188 0.874905 -0.226806 -0.427903 181 153 107
-4.8702 -2.86452 13.7848 -0.165571 -0.0599737 -0.984373 49 34 22
-4.85359 -2.89468 10.1626 0.628875 -0.581022 -0.516652 108 83 27
-5.62107 -3.10676 14.2409 -0.178442 -0.325122 -0.928684 69 46 20
-5.40606 -2.94847 14.1702 0.117753 -0.204536 -0.971751 54 36 21
-5.41379 -2.9506 14.179 0.122122 -0.219059 -0.968039 53 35 22
-5.73699 -3.20192 9.56112 0.606446 -0.670883 -0.426777 225 201 140
-5.55768 -2.95558 14.2267 0.0110266 -0.330989 -0.94357 55 35 19
-5.4852 -2.81664 14.2738 0.137031 -0.266661 -0.953999 65 44 24
-5.34691 -2.7753 14.168 0.0841734 -0.16546 -0.982618 64 45 24
-7.52431 -4.09545 8.73172 0.825833 0.0720811 -0.559289 196 165 116
-7.48495 -3.90707 8.70303 0.812095 0.0565002 -0.580784 209 180 126
-7.4142 -3.99287 8.83762 0.842521 0.0516815 -0.536179 201 171 120
-5.60865 -2.72268 12.9902 0.647394 -0.404792 -0.645774 163 126 57
-7.58521 -3.82969 8.59216 0.884595 0.0863043 -0.458305 211 181 127
-7.42877 -3.82493 8.87267 0.911593 -0.00114785 -0.411093 213 185 130
-3.28426 -0.99713 13.2008 -0.398439 -0.0849638 -0.913251 41 21 10
-7.17541 -2.89618 10.751 0.806241 0.21555 -0.550921 152 116 50
-2.21579 -0.331845 12.2924 -0.403534 -0.111363 -0.908162 114 78 35
-2.18569 -0.253071 12.3744 -0.401512 -0.0886417 -0.911554 109 77 32
