ply
format ascii 1.0
element vertex 738
property float x
property float y
property float z
property float nx
property float ny
property float nz
property uchar diffuse_red
property uchar diffuse_green
property uchar diffuse_blue
end_header
-1.09078 5.94206 4.21926 0.246994 -0.764015 -0.596049 49 38 16
-0.99038 5.97377 4.03385 -0.0392269 -0.959035 -0.280558 49 38 16
-0.978749 6.03206 3.90264 0.29493 -0.817956 -0.493928 51 39 20
-0.739023 6.07466 3.16571 -0.564498 -0.536878 0.626981 50 41 21
-0.737139 6.07667 3.16536 -0.564304 -0.536956 0.627087 50 41 21
-1.06713 5.88652 2.95271 -0.00133705 -0.996864 0.0791257 55 45 21
-0.885706 6.02044 3.05897 -0.570837 -0.623399 0.534339 50 40 19
-0.892757 6.0184 3.04847 -0.581812 -0.617396 0.52945 50 40 19
-0.746728 6.06906 3.04099 -0.604901 -0.498938 0.620609 55 43 20
-0.91929 5.93538 2.89947 0.0621549 -0.995929 0.065281 53 43 18
-0.90182 5.94323 2.77264 0.0521281 -0.98152 0.184121 71 63 24
-0.760555 5.98693 2.84948 -0.00123216 -0.984423 0.175813 70 68 26
-0.876456 5.91017 2.48996 0.149659 -0.985551 0.0793153 94 82 36
-0.830657 5.93917 2.35269 0.192874 -0.980947 -0.0232808 102 87 42
-0.827472 5.94713 2.16858 0.17953 -0.983698 0.0103317 108 92 44
-0.895507 5.87436 2.06235 0.134482 -0.989539 -0.0522288 95 86 35
0.247973 6.66923 0.881932 0.138961 -0.990293 -0.00317693 136 119 61
0.247788 6.6763 0.887405 0.132274 -0.991161 -0.0101414 135 118 61
0.404028 6.83765 0.985516 0.0877619 -0.992928 0.0799522 119 106 51
-0.302258 6.00503 -0.434166 -0.240543 -0.832072 -0.499795 187 161 99
-0.376544 5.82438 -0.612608 -0.139529 -0.960895 -0.23919 192 165 100
-1.20495 5.15307 -0.785811 -0.160384 -0.950593 -0.265801 193 167 103
-1.19445 5.1412 -1.12049 -0.166306 -0.945483 -0.280007 196 169 105
-0.147393 5.69911 -3.01121 -0.143867 -0.950868 -0.274139 121 100 63
-4.95635 4.29336 13.0612 0.0712967 -0.18907 -0.979372 89 56 19
-4.85464 4.3011 13.0791 0.107656 -0.162459 -0.980825 41 23 5
-4.67324 4.4284 13.2063 -0.103696 0.594871 -0.797105 30 20 10
-4.80041 4.39217 13.0819 0.280103 0.162874 -0.946052 30 18 6
-4.11706 4.92351 13.1811 -0.186855 -0.160895 -0.969122 62 41 20
-3.91031 5.08009 12.8971 0.30215 0.411096 -0.860061 78 56 25
-3.53105 5.34219 12.5279 -0.0890522 -0.992824 -0.0798131 42 28 12
-3.34994 5.62102 13.1632 -0.478869 0.277828 -0.832764 44 33 16
-3.32045 5.43982 12.0088 0.102441 -0.967189 -0.232491 99 81 40
-3.24869 5.51406 12.2125 -0.641885 0.238681 -0.728708 73 59 31
-3.23259 5.52107 11.9348 -0.594814 0.229683 -0.770352 110 90 43
-3.04827 5.63888 11.9374 -0.716745 0.223622 -0.660507 121 97 45
-2.57735 5.95357 11.5616 -0.606469 -0.0425966 -0.793965 133 109 48
-2.6838 6.00592 11.6277 -0.724752 0.00733614 -0.68897 139 114 53
-3.00548 5.57907 10.7601 -0.454809 -0.643086 -0.616108 179 151 88
-2.47308 6.02263 11.4821 -0.534916 0.150576 -0.831379 140 116 54
-2.48407 6.11616 11.4725 -0.662128 0.0096902 -0.749328 164 140 77
-2.5424 5.87517 10.0634 -0.37545 -0.736379 -0.562835 189 159 95
-2.40776 5.94048 9.91263 -0.50667 -0.257257 -0.822864 184 156 90
-2.33152 5.9486 9.85764 -0.176157 -0.609061 -0.773313 183 155 89
-2.29693 6.02288 9.79061 -0.399078 -0.408198 -0.821043 156 131 63
-2.21625 5.9702 9.74084 -0.428542 -0.604085 -0.671887 164 140 71
-2.21243 5.96744 9.7375 -0.445351 -0.296641 -0.844788 162 139 70
-2.21488 5.98849 9.72731 -0.484637 -0.190824 -0.853647 154 132 63
-2.28568 6.07515 9.71472 -0.2934 -0.528046 -0.796921 147 124 56
-2.19146 5.93442 8.33061 -0.40397 -0.654242 -0.639356 160 136 69
-2.191 5.93307 8.32715 -0.406072 -0.649506 -0.642844 160 136 69
-2.19055 5.93283 8.32892 -0.395937 -0.658692 -0.639811 159 136 69
-2.1798 5.89927 8.41042 -0.103827 -0.787745 -0.607188 156 133 66
-2.17442 5.88959 8.40257 -0.0844523 -0.75043 -0.655532 156 133 66
-2.1788 5.90142 8.40978 -0.101741 -0.800343 -0.590847 156 133 66
-2.17506 5.89132 8.40625 -0.0829262 -0.760828 -0.643633 156 133 66
-2.17544 5.88768 8.4046 -0.0811729 -0.742426 -0.664992 156 133 66
-2.11198 5.86758 8.34079 0.0780764 -0.620887 -0.780002 156 134 65
-2.11331 5.86575 8.33776 0.0779684 -0.621125 -0.779823 156 133 65
-2.11714 5.86208 8.34126 0.0772204 -0.620252 -0.780593 156 134 65
-2.09873 5.9459 8.24677 -0.335794 -0.757625 -0.559684 158 135 67
-2.12699 5.91829 8.26649 -0.409002 -0.730644 -0.546697 155 133 66
-2.0689 5.96568 8.15184 -0.15371 -0.940263 -0.303774 180 156 91
-2.01741 5.95332 8.19002 -0.315358 -0.7806 -0.539642 157 135 66
-2.00853 5.94781 8.07788 0.203792 -0.971536 -0.120778 186 160 94
-1.47042 5.83105 4.54792 0.19018 -0.98089 -0.0410617 100 82 40
-1.3133 5.96577 4.35252 -0.091663 -0.969967 0.225302 61 47 18
-1.4147 5.8872 4.14499 -0.21353 -0.885254 0.413195 53 43 18
-1.24383 6.04964 4.24985 -0.167368 -0.985644 -0.0222159 55 43 19
-1.38457 5.9425 4.05902 -0.0825794 -0.982675 -0.165921 48 38 17
-1.25723 5.96439 4.13561 -0.232452 -0.872648 0.429477 48 38 17
-1.16132 6.01534 4.03863 0.311187 -0.627086 -0.714091 51 40 21
-1.25397 6.00565 3.86773 0.0315236 -0.722491 -0.690661 44 35 16
-1.16854 6.00575 3.77469 0.186376 -0.826725 -0.530839 44 34 16
-1.15245 5.92806 3.62595 0.0781491 -0.821248 -0.565195 44 34 16
-1.03543 5.97252 3.05533 0.18316 -0.897042 -0.402203 48 38 17
-1.0339 5.97419 3.05484 0.185433 -0.901004 -0.392181 48 38 17
-0.949401 6.03587 3.11661 -0.630141 -0.466574 0.62067 46 37 17
-1.15209 5.87444 2.7856 0.106954 -0.980666 0.163878 84 72 36
-1.02691 5.92551 2.83756 0.120971 -0.988791 0.0875094 64 52 23
-1.13296 5.88883 2.62979 0.0294101 -0.994148 0.103945 91 80 35
-1.03666 5.88223 2.71454 -0.0175031 -0.97802 0.207775 80 73 29
-0.976543 5.92824 2.57779 0.108316 -0.990339 0.0865842 93 82 35
-1.08083 5.93534 2.51618 -0.0189806 -0.999762 -0.0107667 95 83 37
-0.951834 5.93703 2.44531 0.0651492 -0.997396 -0.0309267 98 86 39
-0.920305 5.99014 2.31909 0.0695072 -0.975003 -0.21104 107 93 46
-0.992485 5.86661 2.215 0.134953 -0.988299 -0.071083 102 89 40
-0.985727 5.88489 2.10407 -0.015476 -0.995549 -0.0929643 112 96 46
-0.628917 6.16762 2.05703 0.183299 -0.982622 0.0292544 116 97 45
-0.87842 6.03789 2.01779 0.103636 -0.969123 0.223742 100 90 36
0.208861 6.75437 1.00509 -0.0915365 -0.976361 -0.195809 126 109 55
0.308424 6.84355 1.00981 -0.328596 -0.889455 -0.317639 117 103 50
0.190545 6.73772 0.875098 0.0443495 -0.994689 -0.0928793 132 113 58
0.122439 6.68474 0.860376 0.0778825 -0.994942 -0.0634373 134 116 59
0.187155 6.72674 0.873779 0.0486855 -0.99487 -0.0886809 124 106 52
0.100964 6.62299 0.91398 -0.0567823 -0.981608 -0.182269 135 117 60
-0.409926 5.9323 -0.537266 -0.842272 -0.534884 -0.0669093 197 170 104
-1.28478 5.15001 -1.26875 -0.169134 -0.969173 -0.179159 200 173 108
-0.316263 5.68716 -2.91398 -0.130473 -0.966567 -0.220739 124 103 68
-0.319128 5.6928 -2.91178 -0.133176 -0.96099 -0.24241 123 103 68
-5.01251 4.38246 13.0327 0.14592 -0.05458 -0.98779 101 63 17
-5.05941 4.38471 13.0281 0.204121 0.106662 -0.973118 105 64 13
-4.90255 4.3849 13.0547 0.0927262 -0.218731 -0.971369 56 32 10
-4.94741 4.39378 13.0369 -0.256452 0.0901584 -0.962343 79 49 18
-4.84981 4.47252 13.049 0.144784 -0.190392 -0.970973 35 20 5
-4.79242 4.5695 13.0602 0.315554 0.197322 -0.928165 29 19 6
-4.74397 4.65947 13.0036 -0.0273793 0.576744 -0.816466 30 19 8
-4.18156 5.10964 13.1632 -0.340635 0.51976 -0.783465 58 42 23
-3.18902 6.00933 13.4321 -0.581718 0.285151 -0.76177 37 27 11
-3.10942 5.57665 10.8581 -0.578028 -0.580383 -0.573619 176 147 85
-2.67238 5.92568 10.1291 -0.60352 -0.134318 -0.785953 187 157 93
-2.6013 5.89304 10.1239 -0.547278 -0.574332 -0.608794 188 158 94
-2.40539 6.02772 9.84886 -0.263716 -0.56561 -0.78137 151 126 60
-2.48267 6.10622 9.84571 -0.211103 -0.599898 -0.771724 145 122 55
-2.41336 6.09988 9.78097 -0.302779 -0.52896 -0.792797 144 121 54
-2.37999 6.08925 9.76991 -0.235599 -0.577146 -0.781918 144 122 54
-2.25868 6.13894 9.6658 -0.989146 -0.0398974 -0.141418 147 126 56
-2.49897 5.88388 8.61901 0.0202985 -0.613012 -0.789813 157 134 67
-2.42965 5.88235 8.57534 -0.0718558 -0.686513 -0.723559 156 134 66
-2.40516 5.8873 8.55078 0.0218326 -0.653097 -0.756959 156 134 66
-2.42143 5.9383 8.49153 -0.342637 -0.684193 -0.643801 159 135 68
-2.42178 5.93728 8.49193 -0.351937 -0.675137 -0.648329 159 135 68
-2.30908 5.91179 8.50832 -0.0832585 -0.814327 -0.574404 157 134 67
-2.26704 6.00101 8.30963 -0.336551 -0.705333 -0.62389 181 154 89
-2.26534 6.00085 8.30697 -0.333949 -0.707773 -0.622524 181 154 89
-2.26046 5.94539 8.38684 -0.33053 -0.76975 -0.546108 159 135 69
-2.25704 5.94852 8.3846 -0.32359 -0.791607 -0.518311 159 135 70
-2.21266 6.02568 8.16805 -0.160735 -0.891237 -0.424099 197 168 102
-2.17179 5.99795 8.21562 -0.273132 -0.853914 -0.442979 188 161 94
-2.19299 5.9968 8.25091 -0.329339 -0.769514 -0.54716 181 155 89
-2.18986 5.99766 8.2465 -0.322414 -0.767107 -0.554614 182 156 90
-2.19073 5.99755 8.24845 -0.325781 -0.767481 -0.552123 181 155 89
-2.13984 6.01923 8.11877 -0.200197 -0.869465 -0.45161 195 167 103
-2.54976 5.37969 5.88234 -0.316335 -0.947914 0.0372969 101 84 36
-1.88096 5.7345 4.80327 -0.132329 -0.985794 0.103438 117 105 45
-1.86408 5.7401 4.70699 0.105173 -0.990421 0.0894686 95 77 34
-1.75969 5.76549 4.66281 0.00697836 -0.984507 -0.175205 93 75 32
-1.82925 5.76468 4.61569 0.170147 -0.985364 0.010382 94 74 33
-1.67461 5.80565 4.57643 0.370257 -0.660616 -0.653067 89 70 29
-1.70906 5.88556 4.58691 0.315301 -0.914332 -0.254132 87 69 29
-1.55594 5.94436 4.4186 -0.220277 -0.90419 0.365948 82 68 29
-1.40807 6.00449 4.4204 -0.203656 -0.896331 0.393846 74 60 23
-1.50576 5.88867 4.08836 -0.541584 -0.80633 0.237735 54 43 18
-1.44171 6.00907 4.02957 -0.587521 -0.683632 0.432975 59 55 18
-1.3381 6.00449 3.94795 0.258312 -0.478385 -0.839299 43 34 14
-1.40863 6.00234 3.95668 -0.430842 -0.790961 0.43446 42 33 12
-1.39057 6.04081 3.8052 0.148839 -0.725519 -0.671915 43 33 16
-1.35004 5.93188 2.93504 -0.219434 -0.889195 -0.401473 76 63 32
-1.2691 5.90402 2.87637 0.0513555 -0.998651 0.00771558 78 66 32
-1.3234 5.91091 2.69423 0.0512634 -0.99865 0.00839828 92 79 35
-1.18355 5.95941 2.59325 -0.0175315 -0.982636 -0.184716 94 82 36
-1.19255 5.95158 2.45008 -0.136471 -0.978591 0.154064 97 83 37
-1.23501 5.92326 2.43606 -0.113444 -0.974889 0.191629 97 83 38
-1.05917 5.95723 2.38091 0.0200142 -0.974979 -0.221392 103 88 43
-1.14413 5.97804 2.34676 -0.019634 -0.996414 -0.082297 102 88 42
-1.1894 5.94634 2.1886 0.0501976 -0.987567 -0.148969 118 100 50
-1.05384 5.93806 2.05492 0.0920475 -0.967056 -0.237338 121 103 50
-1.15407 5.86223 1.90129 0.0755678 -0.95784 0.277186 132 112 57
0.0554781 6.71172 0.97836 0.103913 -0.994511 -0.0122499 123 110 52
0.0280293 6.67724 0.846647 -0.0583508 -0.980767 -0.186258 140 121 63
0.125024 6.78759 0.876503 -0.0937286 -0.976579 -0.19367 120 102 48
0.0664828 6.75661 0.840512 -0.0729511 -0.98141 -0.177517 133 114 57
0.0330275 6.69083 0.846356 -0.079749 -0.976204 -0.201657 140 120 62
-0.567205 5.98926 -0.380936 0.0811574 -0.910159 -0.406231 183 156 96
-1.27236 5.22227 -1.09533 -0.158846 -0.941608 -0.296887 200 172 108
-1.38654 5.14168 -1.27856 -0.169784 -0.879208 -0.445159 202 175 109
-1.34896 5.22491 -1.23395 -0.231681 -0.947137 -0.221937 203 176 110
-1.34896 5.22491 -1.23395 -0.231681 -0.947137 -0.221937 203 176 110
-1.27499 5.2384 -1.39603 -0.379854 -0.887834 -0.259735 204 175 111
-5.14798 4.30098 12.881 0.670597 0.039478 -0.74077 108 67 12
-5.08155 4.47054 13.0012 -0.0322011 0.119471 -0.992315 104 64 14
-4.98615 4.53179 13.143 -0.121585 -0.0408801 -0.991739 93 59 20
-3.06432 6.21861 13.3067 -0.710942 -0.104435 -0.695453 98 78 36
-3.27628 5.54499 10.4412 -0.868713 -0.280127 -0.408494 186 155 91
-3.1103 5.66148 10.3115 -0.898441 -0.00429508 -0.439074 182 154 90
-2.93751 5.92023 10.2334 -0.448576 -0.183808 -0.87464 179 151 86
-2.95101 5.88838 10.3159 -0.540446 -0.0838833 -0.837187 183 154 90
-2.83237 5.88205 10.2575 -0.557151 -0.1611 -0.814635 186 156 92
-2.79394 5.93332 10.1856 -0.358185 -0.105647 -0.927654 184 154 90
-2.90862 5.96931 10.1618 -0.311328 -0.860986 -0.402216 150 125 59
-2.69242 6.07607 10.1366 -0.557357 -0.00165176 -0.830271 168 140 74
-2.66386 5.88951 8.71475 -0.115114 -0.744542 -0.657576 155 132 65
-2.56523 5.89618 8.67776 -0.0357248 -0.711731 -0.701543 155 133 65
-2.57891 5.93253 8.60232 -0.363261 -0.699149 -0.615819 158 135 67
-2.58956 5.92664 8.60138 -0.394552 -0.630154 -0.668756 157 135 66
-2.50439 5.9214 8.54682 -0.450333 -0.550317 -0.703101 158 135 67
-2.50113 5.99136 8.47373 -0.348492 -0.709731 -0.612238 177 151 84
-2.50038 5.94218 8.55114 -0.268536 -0.788578 -0.553203 159 136 68
-2.42548 5.99428 8.41699 -0.370854 -0.703475 -0.606293 180 153 86
-2.42658 6.05613 8.34262 -0.349639 -0.698171 -0.624748 200 168 103
-2.34415 6.00714 8.35973 -0.457043 -0.572989 -0.680291 184 156 91
-2.35239 6.05287 8.28379 -0.241983 -0.748377 -0.617557 201 169 105
-2.31695 6.14254 8.22719 0.00590277 -0.581721 -0.813367 201 167 101
-2.27296 6.0558 8.22949 -0.356615 -0.694917 -0.624433 200 169 104
-2.2489 6.09184 8.17882 -0.0618464 -0.726671 -0.684197 200 168 102
-2.20674 6.07723 8.08243 -0.00769034 -0.728644 -0.684849 198 166 102
-2.63005 5.65625 7.31274 -0.564391 -0.61909 -0.546068 179 154 87
-2.36892 5.51784 4.88231 -0.895487 -0.319294 0.310087 138 131 58
-2.01008 5.73214 4.83792 -0.274041 -0.96037 0.0508947 107 87 41
-1.95698 5.73493 4.65715 0.123108 -0.989458 0.0762631 95 76 36
-1.95625 5.71181 4.36408 0.357319 -0.762662 -0.539138 84 68 28
-1.77067 5.84871 4.36241 0.368171 -0.652996 -0.661851 79 65 27
-1.71388 5.88698 4.09692 -0.737558 -0.672563 0.0605587 67 53 23
-1.83724 5.78397 3.91894 -0.254953 -0.957401 0.135585 61 48 22
-1.60169 6.00995 4.02465 -0.566474 -0.811021 0.146127 55 42 16
-1.6955 5.94614 3.9079 -0.302825 -0.927847 -0.217708 55 43 19
-1.57629 5.95455 3.93189 -0.351923 -0.838654 0.415704 47 36 15
-1.55255 5.93709 3.8531 -0.22253 -0.866675 0.446491 44 34 14
-1.67105 5.89437 3.63271 -0.224539 -0.856982 0.463857 45 34 17
-2.19929 5.2819 3.02472 -0.15675 -0.573413 -0.804131 65 52 24
-2.17521 5.32745 3.03183 -0.108112 -0.430201 -0.896236 60 47 21
-1.413 6.01274 2.91025 -0.0992059 -0.877991 -0.468284 82 69 31
-1.3366 5.99154 2.80837 -0.0371636 -0.949613 -0.311212 86 73 32
-1.39648 5.89447 2.76561 0.0702879 -0.997443 -0.0129001 91 78 36
-1.39501 5.97492 2.65429 0.272768 -0.940098 -0.204485 96 83 37
-1.26748 6.01646 2.54219 0.0730074 -0.950634 -0.301605 94 81 35
-1.30833 5.94934 2.38198 -0.179655 -0.981763 0.0621784 98 85 38
-1.40165 5.87725 2.35221 0.085305 -0.963458 0.253911 98 83 36
-1.26801 5.98026 2.27146 -0.0998538 -0.975019 -0.198412 108 92 44
-1.44972 5.77627 2.17906 -0.114945 -0.873073 0.473848 113 97 48
-1.45504 5.81922 2.27373 0.021715 -0.980558 -0.195024 102 87 40
-1.32081 5.86713 2.30666 0.15899 -0.980092 0.118916 101 87 39
-1.38262 5.79403 1.88663 0.0170749 -0.925297 0.378858 135 116 60
-1.25756 5.85225 1.84294 0.223697 -0.973944 -0.0373274 134 115 59
-1.16915 5.93729 1.46413 -0.470104 -0.502627 0.725512 143 123 62
-0.144077 6.78352 1.04812 -0.164017 -0.954691 -0.248321 147 125 69
0.0769135 6.776 0.376436 0.132581 -0.99116 -0.00502327 161 140 79
-0.875519 5.91565 -0.280306 -0.435678 -0.351516 0.828626 186 158 98
-1.67604 5.0883 -0.777079 -0.180196 -0.693586 -0.697472 197 169 105
-1.75913 5.05213 -0.788381 -0.199242 -0.612848 -0.76467 197 169 105
-1.72679 5.03901 -0.877067 -0.17136 -0.769547 -0.615169 197 169 105
-1.45185 5.17907 -1.06231 -0.159526 -0.880955 -0.4455 201 173 108
-1.52806 5.1426 -1.0498 -0.180332 -0.756981 -0.628061 201 173 108
-1.37819 5.26589 -1.15334 -0.359893 -0.871379 0.333432 203 176 109
-1.35511 5.32505 -1.21017 -0.537803 -0.842815 0.0207642 200 173 107
-1.34627 5.26064 -1.22743 -0.253461 -0.96718 -0.0179306 203 177 110
-1.34627 5.26064 -1.22743 -0.253461 -0.96718 -0.0179306 203 177 110
-1.32625 5.26453 -1.31525 -0.229051 -0.917045 -0.326442 204 176 110
-1.32609 5.26459 -1.31523 -0.228963 -0.916974 -0.326702 204 176 110
-1.32609 5.26459 -1.31523 -0.228963 -0.916974 -0.326702 204 176 110
-0.573244 5.703 -2.85021 -0.125379 -0.961407 -0.2449 123 106 67
-5.31855 4.40602 12.8146 0.0897146 -0.0891477 -0.99197 116 74 15
-5.13554 4.55434 12.9603 0.12313 -0.0497622 -0.991142 106 65 13
-5.19971 4.43383 12.9018 0.129326 -0.0593604 -0.989824 110 68 13
-5.13176 4.55084 12.9602 0.132849 -0.0389156 -0.990372 106 65 13
-5.25674 4.52315 12.8735 0.10028 -0.117867 -0.987953 110 70 13
-4.98693 4.75349 13.1858 -0.0984169 0.0453536 -0.994111 89 57 18
-5.04129 4.62484 13.1309 -0.131631 0.0204354 -0.991088 102 64 18
-5.09801 4.71953 13.1143 -0.0736533 0.0150405 -0.997171 104 64 13
-4.84196 4.8112 13.3038 -0.218589 -0.0165392 -0.975677 37 22 7
-3.74938 5.97881 13.3159 -0.916063 -0.393711 -0.0762896 103 81 31
-3.80901 5.88036 13.1568 -0.867309 -0.447903 -0.217161 100 80 34
-3.14995 5.88521 10.4423 -0.568927 -0.144927 -0.809518 183 154 89
-3.11006 5.87315 10.5058 -0.932646 -0.314321 -0.177128 183 154 90
-3.11006 5.87315 10.5058 -0.932646 -0.314321 -0.177128 183 154 90
-3.04496 5.96222 10.3818 -0.571719 0.070194 -0.817442 179 151 87
-3.04496 5.96222 10.3818 -0.571719 0.070194 -0.817442 182 157 88
-3.05353 6.00161 10.1921 -0.41748 -0.698694 -0.580979 140 116 51
-3.0304 6.00079 10.2822 -0.663771 -0.144405 -0.733863 154 128 63
-2.97353 5.97541 10.216 -0.321787 -0.749087 -0.57907 154 128 63
-2.84117 6.12025 10.2234 -0.528392 -0.00961643 -0.848946 153 127 62
-2.98267 6.01015 10.1402 -0.403005 -0.815902 -0.414597 140 116 50
-2.82982 5.88723 8.79901 -0.444872 -0.531884 -0.720547 153 130 63
-2.62296 6.03943 8.57801 -0.205746 -0.893174 -0.399886 180 153 86
-2.57742 5.9861 8.52545 -0.298726 -0.798255 -0.523021 175 150 83
-2.51501 6.02768 8.3975 -0.284894 -0.823493 -0.490606 198 168 102
-2.58485 6.0377 8.45029 -0.370837 -0.745314 -0.554064 199 169 103
-2.587 6.08078 8.37025 -0.0851861 -0.720163 -0.688555 203 170 104
-2.58924 6.08479 8.37412 -0.0640501 -0.70968 -0.701607 203 170 104
-2.51463 6.0758 8.31807 -0.0110475 -0.698397 -0.715626 203 170 104
-2.51302 6.07876 8.32292 0.03715 -0.65578 -0.754037 203 170 104
-2.50898 6.07623 8.32118 -0.0357183 -0.712592 -0.700669 203 170 104
-2.52441 6.08029 8.32303 0.036634 -0.686513 -0.726194 203 170 104
-2.42531 6.12576 8.26772 0.056454 -0.554744 -0.830104 203 167 102
-2.92417 5.58764 7.25809 -0.134353 -0.895741 -0.42379 198 167 105
-2.59762 5.73581 6.77278 -0.145427 -0.771743 -0.619082 144 120 61
-2.54512 5.7522 6.62539 -0.307655 -0.670485 -0.675128 130 107 51
-2.68277 5.51159 5.79409 -0.312494 -0.757033 -0.573802 98 87 33
-2.60817 5.4903 5.74079 -0.321133 -0.73594 -0.596042 101 91 34
-2.17692 5.745 4.85483 0.0465295 -0.873258 -0.485032 106 102 40
-2.13759 5.71576 4.75813 -0.0300234 -0.918752 -0.393692 97 88 32
-2.11303 5.78273 4.68419 0.158192 -0.827343 -0.53896 80 66 24
-2.05606 5.76129 4.59115 0.187216 -0.811363 -0.553751 79 62 23
-2.05617 5.7666 4.2951 0.386081 -0.679731 -0.623624 82 67 30
-1.93944 5.86256 4.24052 0.37531 -0.66396 -0.646761 61 47 17
-1.92866 5.88627 4.10172 0.367958 -0.836771 -0.405489 61 47 19
-1.76679 5.92958 4.06794 -0.135061 -0.99072 -0.0152311 66 53 23
-1.89787 5.84146 3.88237 -0.297017 -0.824805 0.481122 64 51 24
-1.74839 5.93548 3.87999 -0.257746 -0.958727 0.120038 57 45 21
-1.75693 5.88815 3.76823 0.330984 -0.892145 -0.307454 51 41 16
-1.74925 5.92167 3.58517 -0.14801 -0.895745 0.419206 46 36 17
-1.65307 6.00297 3.55654 -0.188164 -0.871016 0.453791 45 35 17
-1.73082 5.84704 3.3951 0.237999 -0.969798 -0.0533627 46 39 16
-2.25203 5.38403 3.0096 -0.49766 -0.356306 -0.79081 77 63 29
-1.59309 5.90906 2.70961 -0.0105372 -0.999235 -0.0376595 97 83 37
-1.59028 5.95895 2.64069 0.23342 -0.837424 -0.494203 104 89 42
-1.4783 5.948 2.57149 0.219569 -0.842952 -0.491143 100 87 40
-1.53942 5.81862 2.22247 0.156806 -0.897011 -0.413258 97 82 37
-1.64197 5.58889 1.33395 -0.0573185 -0.989812 0.130333 142 119 61
-1.69106 5.59726 1.20142 -0.357784 -0.843813 0.399964 148 125 67
-0.272327 6.78346 1.12695 -0.283438 -0.897957 -0.336655 148 127 70
-0.206088 6.72269 0.660073 -0.0692337 -0.863623 -0.499361 158 139 75
-0.226296 6.722 0.337963 0.215257 -0.975017 0.054837 145 123 68
-0.0419517 6.78372 0.264054 0.134514 -0.990897 -0.00543778 169 145 84
-0.943554 5.93095 -0.352991 -0.440544 -0.654122 0.614854 186 159 99
-1.65626 5.13282 -0.978682 -0.458258 -0.734561 -0.500421 201 173 108
-1.23187 5.39101 -1.5584 -0.144472 -0.81972 -0.554244 200 171 107
-5.32114 4.57004 12.758 0.317226 0.199229 -0.927187 115 74 14
-5.20525 4.59401 12.8229 0.317052 0.199153 -0.927263 107 67 10
-5.16143 4.83528 13.1514 -0.479122 -0.767434 -0.426014 107 65 12
-3.94501 6.07776 13.8963 -0.637742 -0.276475 -0.71892 73 58 28
-3.84157 6.06541 13.8226 -0.565346 -0.261703 -0.782237 68 53 27
-3.91403 6.09107 13.8066 -0.714581 -0.53924 -0.445639 86 69 33
-3.85981 6.00023 13.4274 -0.906218 -0.415747 -0.0769619 103 81 33
-3.8236 5.90542 13.2003 -0.948499 -0.262798 -0.17688 104 82 33
-3.87627 5.92133 12.5849 -0.903581 -0.325969 -0.278003 112 87 35
-3.78401 5.99307 12.6781 -0.904881 -0.32978 -0.269139 111 87 35
-3.78401 5.99307 12.6781 -0.904881 -0.32978 -0.269139 111 87 35
-3.44162 5.96148 10.7367 -0.497633 -0.614131 -0.612539 183 154 90
-3.37274 5.94132 10.7671 -0.369316 -0.494941 -0.786537 184 154 91
-3.37273 5.94177 10.7678 -0.368776 -0.498587 -0.784484 184 154 91
-3.37273 5.94177 10.7678 -0.368776 -0.498587 -0.784484 184 154 91
-3.37554 5.96922 10.5868 -0.608366 0.0130792 -0.793549 179 151 86
-3.38716 5.9663 10.5906 -0.609318 0.00892994 -0.792875 178 151 85
-3.25687 5.95741 10.5372 -0.525269 -0.15955 -0.835845 183 155 89
-3.30666 6.03339 10.5085 -0.558177 -0.0955983 -0.824196 155 130 63
-3.31317 6.03791 10.5145 -0.576276 -0.150729 -0.803235 154 129 62
-3.22555 6.10276 10.4284 -0.588347 -0.00274184 -0.808604 145 121 53
-3.10976 6.09263 10.3798 -0.547947 -0.0030553 -0.836507 144 119 53
-2.90774 5.98973 8.62357 -0.231739 -0.616688 -0.752325 167 150 78
-2.88262 6.01346 8.51565 0.366616 -0.899127 -0.239087 181 162 88
-2.9139 5.9744 8.39044 0.259384 -0.957133 -0.128905 199 166 102
-3.05452 5.62475 7.23677 -0.237252 -0.813623 -0.530781 175 148 86
-2.99009 5.60704 7.20283 -0.0247515 -0.968696 -0.247013 177 149 87
-2.99406 5.6163 7.12122 -0.0646073 -0.95805 -0.279226 159 136 74
-3.02179 5.55436 7.05944 0.034524 -0.934003 -0.355594 157 134 72
-2.59761 5.81417 6.67513 -0.386544 -0.774561 -0.500639 129 106 49
-2.66017 5.74826 6.61478 -0.443167 -0.68463 -0.578692 121 98 43
-2.68143 5.76542 6.54601 -0.284456 -0.689444 -0.666147 117 95 42
-2.4362 5.71129 5.35235 -0.268828 0.000575364 -0.963188 100 80 33
-2.55554 5.72068 5.39854 -0.674304 -0.368994 -0.639654 99 78 32
-2.29717 5.84096 4.92859 -0.810609 -0.585162 -0.0223256 82 63 25
-2.28998 5.84299 4.93258 -0.731533 -0.537791 0.419095 82 63 25
-2.25236 5.86338 4.75667 -0.886566 -0.321474 0.33265 78 63 25
-2.31163 5.80747 4.56513 -0.268557 -0.912518 0.308526 73 58 26
-2.18397 5.80489 4.54697 0.264331 -0.959929 -0.0930871 101 92 39
-2.20468 5.74159 4.16469 0.253625 -0.775714 -0.577878 82 66 32
-2.1545 5.81854 4.08055 -0.0888411 -0.979256 -0.18211 54 41 13
-2.13945 5.79134 3.96098 -0.30181 -0.914617 0.269049 60 46 19
-2.01963 5.8946 3.91242 -0.234127 -0.957129 0.170556 66 53 22
-2.26404 5.53777 3.13504 -0.534491 -0.790314 0.299537 90 74 33
-2.32199 5.43744 2.89182 -0.418206 -0.890302 0.180183 107 90 41
-1.79484 5.88829 2.78975 0.104057 -0.7486 -0.654805 98 83 37
-1.62339 6.01501 2.75684 0.0277929 -0.994515 -0.100829 93 80 35
-1.70982 5.91915 2.64074 0.0789305 -0.965341 -0.24877 105 89 42
-1.67504 5.91062 2.50189 -0.419585 -0.465347 -0.779359 111 96 47
-1.77022 5.87377 2.38315 -0.525864 -0.661933 -0.534146 111 94 46
-1.62601 5.92629 2.32423 0.00466409 -0.999383 0.0348052 103 86 39
-1.69506 5.85915 1.96714 -0.571232 -0.773701 0.274008 114 97 47
-1.72608 5.73157 1.91098 -0.602599 -0.783422 0.152066 121 102 51
-1.69807 5.69756 1.43367 0.148382 -0.951747 -0.268626 137 118 58
-0.914315 6.17591 -0.205022 0.165193 -0.96207 0.217101 183 155 94
-0.87454 6.08991 -0.268819 0.02706 -0.91102 0.411472 182 155 93
-1.6627 5.23159 -1.39431 -0.20264 -0.703158 -0.681547 201 173 108
-1.63071 5.24348 -1.39092 -0.173496 -0.820553 -0.544603 201 173 108
-1.63071 5.24348 -1.39092 -0.173496 -0.820553 -0.544603 201 173 108
-5.28548 4.73457 12.841 0.317264 0.199405 -0.927136 113 72 14
-4.26534 5.95896 14.0073 -0.604272 0.0872571 -0.791986 55 42 21
-4.06275 6.12003 14.0079 -0.545353 -0.744821 -0.384489 83 67 35
-4.17662 5.86183 13.3864 -0.728023 -0.616692 -0.299457 104 83 37
-3.94558 6.0112 12.4914 -0.896547 -0.355347 -0.264445 113 88 35
-3.922 5.7322 11.4158 0.398047 -0.841444 -0.365417 133 108 46
-3.59422 5.99105 10.741 -0.621712 -0.075469 -0.779601 174 146 80
-3.61042 5.95324 10.7856 -0.712202 -0.11952 -0.691725 181 152 87
-3.49317 5.9979 10.8512 -0.432072 -0.713705 -0.551307 183 153 90
-3.49969 6.04375 10.6669 -0.501522 0.0596282 -0.863088 156 130 64
-3.65424 5.77196 10.2732 -0.773287 0.020819 -0.633714 146 120 54
-3.48841 6.04777 10.6632 -0.510712 0.0602833 -0.857636 156 130 63
-3.3338 6.16854 10.505 -0.530963 -0.0107594 -0.847327 143 121 53
-3.34501 6.17252 10.517 -0.498687 -0.0132477 -0.866681 143 121 54
-3.40583 6.11542 10.6026 -0.587216 -0.144546 -0.79642 145 122 54
-3.40801 6.11796 10.5953 -0.582423 -0.148724 -0.799165 145 121 54
-3.24736 6.10886 10.4368 -0.553103 -0.00642201 -0.833088 144 121 53
-3.06893 5.63012 7.16837 -0.00173628 -0.829375 -0.55869 169 144 82
-3.04031 5.48829 6.18252 -0.288291 -0.923939 -0.251447 111 90 41
-3.12406 5.47304 6.23842 0.113809 -0.956405 -0.268957 117 95 44
-2.51967 5.83602 5.36068 -0.329972 -0.0755509 -0.940963 89 68 25
-2.61076 5.8304 5.4111 -0.660746 -0.461439 -0.592022 88 69 24
-2.35507 5.87979 5.02943 -0.902508 -0.34462 0.258294 104 95 36
-2.38453 5.90741 4.90812 -0.786831 -0.574498 0.225498 76 60 22
-2.40084 5.90297 4.73301 -0.246592 -0.889963 0.383612 71 56 24
-2.34482 5.83301 4.79926 -0.80393 -0.44001 0.40011 73 59 22
-2.39087 5.866 4.62314 -0.240493 -0.919922 0.30969 66 53 23
-2.24944 5.93264 4.73187 0.408065 -0.590657 -0.696137 77 62 27
-2.28657 5.88568 4.69099 -0.701872 -0.538959 0.465725 75 60 26
-2.36702 5.86595 4.54243 0.168415 -0.985708 0.00404194 63 49 21
-2.35501 5.89261 4.42752 -0.205227 -0.953499 0.220731 64 49 19
-2.31634 5.75878 4.10201 -0.0722592 -0.856887 -0.510414 90 73 35
-2.20811 5.90057 4.06374 0.161947 -0.89097 -0.4242 67 53 19
-2.31751 5.81752 4.0003 -0.294728 -0.849361 0.437859 78 64 26
-2.14225 5.85489 3.96558 0.0715511 -0.933065 -0.352519 62 48 20
-2.12054 5.92536 3.85765 0.231229 -0.854562 -0.465034 69 56 24
-2.097 5.87677 3.73165 -0.112925 -0.818233 -0.563687 73 58 25
-2.09542 5.9451 3.63609 -0.12351 -0.992275 -0.0116285 67 58 20
-2.53749 5.45667 3.27579 -0.572594 -0.819691 0.0156033 97 82 35
-2.50634 5.44016 3.16744 -0.449767 -0.892502 -0.0338923 105 90 40
-2.29977 5.58161 3.04588 -0.335022 -0.746825 -0.574467 106 88 42
-1.92205 5.91442 2.73837 -0.190845 -0.57828 -0.793203 109 91 42
-1.78205 5.96415 2.69493 -0.273502 -0.819178 -0.504126 109 91 43
-1.77213 5.96152 2.49579 -0.0202361 -0.727239 -0.686086 120 103 50
-1.8604 5.86069 2.35908 0.205624 -0.976467 0.0650394 112 96 45
-1.83572 5.84754 2.24548 0.0839319 -0.994456 0.0633437 99 83 36
-1.70369 5.90594 2.1166 -0.241478 -0.760791 0.6024 98 82 36
-1.78912 5.90847 2.06833 0.00495437 -0.986993 0.160684 95 79 34
-1.77864 5.90237 1.97028 -0.0851132 -0.943574 -0.320038 106 88 40
-1.79874 5.78927 1.91025 0.000986099 -0.98919 -0.146637 118 99 48
-1.7248 5.87301 1.85406 -0.251002 -0.749815 -0.612189 124 105 51
-1.71757 5.94806 1.77525 -0.0774876 -0.930852 -0.357085 129 111 57
-1.7273 5.88213 1.52622 -0.0938831 -0.827391 0.553724 114 94 43
-1.88508 5.68056 1.36436 0.210595 -0.962004 -0.173777 142 122 65
-1.73997 5.73418 1.23347 -0.323122 -0.756457 0.568652 145 127 64
-1.02193 6.18661 0.0139078 0.19036 -0.98162 -0.013609 181 154 94
-0.833426 6.26687 -0.134463 0.233352 -0.972356 -0.00838919 181 154 93
-0.965396 6.23687 -0.125545 0.174746 -0.9842 0.0285467 184 156 95
-5.24365 5.13662 13.6846 -0.000388512 0.189673 -0.981847 116 73 17
-4.61562 5.83133 13.9457 -0.530715 -0.0370519 -0.84674 39 31 17
-4.575 5.83069 13.9461 -0.639175 -0.0884646 -0.763957 34 27 14
-4.52517 5.96396 13.8963 -0.0629018 0.0812828 -0.994704 73 59 32
-4.4414 5.89426 13.9403 -0.0361136 0.0817268 -0.996 41 30 15
-4.3554 6.09097 13.9955 -0.0362545 0.081692 -0.995998 95 78 40
-4.24423 6.17926 14.1901 -0.679699 0.161779 -0.715428 91 74 43
-4.01509 6.13557 12.5861 -0.338197 -0.698864 -0.630248 116 91 37
-4.24635 5.80504 11.9387 0.310912 -0.823491 -0.474548 120 95 37
-4.09329 6.01288 12.2378 -0.193551 -0.932009 -0.306426 119 94 38
-4.1603 5.84709 11.8621 0.0918199 -0.902834 -0.420071 121 96 39
-4.23287 5.7606 11.6332 0.156447 -0.746429 -0.646814 123 98 39
-4.08915 5.80001 11.7744 -0.0161675 -0.926619 -0.375655 124 99 40
-4.08902 5.7988 11.7722 -0.00699389 -0.92456 -0.380973 124 99 40
-4.25023 5.67255 11.4002 0.27935 -0.865931 -0.414882 125 100 40
-4.06081 5.70215 11.2813 0.455413 -0.772303 -0.442886 131 105 44
-3.62497 6.11582 10.6469 -0.277139 -0.857019 -0.434411 144 120 53
-3.51654 6.17453 10.6876 -0.397592 -0.273043 -0.875996 145 121 55
-3.51391 6.15773 10.6718 -0.404936 -0.0129155 -0.914254 147 123 56
-3.40886 5.79417 8.07704 0.369719 -0.892749 -0.257502 159 136 72
-3.35528 5.79388 7.88664 0.183101 -0.947189 -0.263262 198 168 103
-3.30925 5.65523 7.0448 0.19369 -0.912417 -0.360525 161 136 73
-3.23893 5.74971 7.09126 -0.215135 -0.825101 -0.522422 156 134 73
-2.793 5.858 5.58191 -0.472975 -0.762533 -0.441405 93 73 25
-2.7014 5.84181 5.48749 -0.698208 -0.417823 -0.581317 89 70 23
-2.65953 5.84244 5.41753 -0.679527 -0.515732 -0.521789 88 70 23
-2.63405 5.8427 5.42378 -0.64381 -0.344263 -0.683368 88 69 23
-2.65926 5.86104 5.29269 -0.315146 -0.862622 -0.395685 103 83 34
-2.6778 5.83862 5.27386 -0.369813 -0.839482 -0.398131 103 83 34
-2.58533 5.84605 5.20619 -0.784327 -0.581945 -0.214876 102 81 35
-2.51704 5.87682 5.01769 -0.305567 -0.864055 0.400047 101 83 35
-2.6208 5.85403 4.94572 -0.227706 -0.933497 0.277008 98 80 33
-2.60593 5.8783 4.96728 -0.236532 -0.939944 0.246086 98 80 33
-2.56022 5.90344 4.81583 -0.363512 -0.929682 0.0595833 84 68 28
-2.50348 5.88052 4.73395 -0.307087 -0.870331 0.384995 76 66 25
-2.44146 5.93356 4.60655 -0.216138 -0.894257 0.391904 59 46 17
-2.44907 5.88253 4.496 -0.0127674 -0.98927 -0.145538 56 41 16
-2.51246 5.82678 4.31029 -0.335607 -0.941954 0.00953045 68 54 25
-2.54255 5.80048 4.19338 -0.150123 -0.984823 -0.0871012 76 62 27
-2.44622 5.84045 4.01688 -0.309894 -0.823106 0.47588 105 86 43
-2.35211 5.89083 3.9842 -0.332859 -0.805671 0.49 89 73 32
-2.71791 5.42055 3.44411 0.308427 -0.751569 -0.583109 104 84 38
-2.25311 5.92831 3.77285 -0.0359472 -0.880135 -0.47336 72 58 23
-2.34923 5.91203 3.83361 -0.20744 -0.825599 -0.524743 74 59 22
-2.27137 5.88343 3.65048 -0.176952 -0.980849 0.0813828 74 64 22
-2.57866 5.4829 3.28994 -0.725292 -0.627112 0.284045 113 93 43
-2.5341 5.56086 3.21978 -0.383476 -0.919375 -0.087723 124 105 50
-2.5368 5.56106 3.22336 -0.378515 -0.924374 -0.0475339 124 104 50
-2.49181 5.6326 3.12277 -0.81624 -0.477917 -0.324572 135 116 58
-2.42532 5.66375 3.06069 -0.69357 -0.720224 0.0154551 133 114 56
-2.38747 5.58942 3.03464 -0.609455 -0.785306 0.108901 120 101 48
-2.345 5.6687 3.00932 -0.24582 -0.872793 -0.421668 123 104 50
-2.41213 5.60748 2.91922 -0.431312 -0.858258 0.278142 128 109 53
-2.12847 5.86488 2.58654 0.194425 -0.795049 -0.574539 127 107 54
-2.0343 5.872 2.33653 -0.200092 -0.976828 0.0759665 118 101 48
-2.05287 5.85344 2.41715 -0.0821691 -0.924162 0.373058 126 108 53
-1.98682 5.92797 2.27244 -0.415341 -0.904516 0.0966571 115 100 47
-1.93868 5.87301 2.3095 -0.143348 -0.98839 0.0503669 112 96 44
-1.8917 5.92704 2.24405 -0.50018 -0.865728 0.018274 106 89 40
-1.91295 5.98006 2.16626 0.160182 -0.880682 -0.445803 99 82 34
-1.86175 5.93685 2.02319 -0.0149157 -0.999492 -0.0281749 99 82 35
-1.83893 5.96572 1.91285 -0.122725 -0.981549 0.146627 111 93 44
-1.81 5.98067 1.82225 -0.616632 -0.307769 -0.724598 116 97 50
-1.73074 5.94872 1.75759 -0.347666 -0.702328 -0.621179 129 110 57
-1.73482 5.97155 1.63321 0.0581385 -0.954926 -0.291094 102 83 35
-1.83899 5.90484 1.58963 -0.329795 -0.725112 0.604523 101 83 38
-1.87687 5.78704 1.45899 -0.23646 -0.718394 0.654214 105 85 37
-1.90054 5.76119 1.49194 -0.388936 -0.720979 0.573514 99 79 33
-1.86857 5.72849 1.2224 -0.510116 -0.857028 -0.0726951 146 127 67
-1.05257 6.25391 -0.0469303 0.216446 -0.97629 0.0030397 177 149 89
-1.01785 6.28354 -0.190872 0.244873 -0.969499 0.0104522 181 153 93
-5.02254 5.64063 14.0318 -0.388021 0.136701 -0.911456 98 62 18
-5.00769 5.6785 14.0526 -0.276611 0.158442 -0.94783 90 58 18
-4.72803 5.88774 14.0447 -0.663852 -0.232521 -0.710798 41 31 18
-4.64207 5.94916 13.917 -0.625981 -0.105107 -0.772723 77 62 36
-4.60263 5.93948 13.9 -0.569194 -0.073085 -0.818948 71 57 34
-4.55075 6.094 14.0263 -0.399515 0.0722386 -0.913876 83 69 39
-4.26321 6.29744 14.1207 -0.330001 -0.291633 -0.897803 99 79 33
-4.28643 6.0651 12.4692 0.377342 -0.891626 -0.25023 115 90 34
-4.18533 6.08095 12.3577 0.0407165 -0.956898 -0.287557 116 91 35
-4.24349 5.78486 11.6198 -0.0336262 -0.835761 -0.548063 124 99 40
-4.25263 5.80203 11.5788 0.06261 -0.660165 -0.748507 126 100 41
-4.25256 5.80214 11.579 0.0644399 -0.658139 -0.750134 126 100 41
-4.16522 5.84966 11.5486 0.42962 -0.861175 -0.271671 128 102 42
-4.16571 5.8489 11.5472 0.415474 -0.871368 -0.260958 128 102 42
-3.99871 6.01005 11.0432 0.131656 -0.0387508 -0.990538 168 142 77
-3.69821 6.0976 10.6695 -0.272191 -0.925494 -0.263386 142 118 53
-3.47699 5.8136 8.02174 0.0955776 -0.982667 -0.158838 158 135 72
-3.48133 5.81604 7.93944 0.118363 -0.983267 -0.138478 163 139 76
-3.54404 5.83524 8.01311 -0.0275419 -0.997752 0.0611001 156 133 70
-3.52482 5.67411 7.31117 -0.245747 -0.790212 -0.561403 180 154 90
-3.43681 5.7319 7.16611 -0.056589 -0.932143 -0.357642 156 132 68
-3.38215 5.67348 7.01142 0.197884 -0.921462 -0.33429 147 124 61
-3.47225 5.66954 6.95192 0.147393 -0.978709 -0.142845 146 124 60
-3.31524 5.73891 7.1347 0.171375 -0.983844 -0.0517896 165 140 77
-3.5595 5.4233 6.3777 -0.462122 -0.68848 -0.558961 129 106 47
-3.48746 5.42767 6.3358 -0.358256 -0.899677 -0.249466 130 108 52
-3.44156 5.43521 6.3492 -0.345183 -0.897767 -0.273612 128 106 50
-3.47594 5.47707 6.40846 -0.398767 -0.892185 -0.212109 132 110 52
-2.79848 5.90244 5.47409 -0.390634 -0.822668 -0.413064 101 82 36
-2.89162 5.91144 5.54223 -0.543596 -0.786658 -0.292699 104 83 36
-2.69981 5.92946 5.41485 -0.49174 -0.570433 -0.657875 104 85 37
-2.71706 5.88111 5.15098 -0.768112 -0.613361 -0.183828 108 88 37
-2.65801 5.93109 5.02402 -0.153994 -0.961542 0.227428 104 83 35
-2.69729 5.91423 5.01458 -0.292696 -0.928389 0.22896 100 80 35
-2.75295 5.9572 5.07389 -0.567825 -0.812691 -0.1308 99 80 34
-2.6649 5.928 4.93311 -0.288309 -0.957188 0.0258591 98 80 34
-2.75847 5.83666 4.67873 -0.0799738 -0.954021 0.288874 91 74 32
-2.68051 5.82183 4.48904 -0.0203065 -0.963582 0.266641 64 51 18
-2.60853 5.82234 4.25042 -0.155917 -0.98719 0.033839 75 60 27
-2.61749 5.58542 3.33704 -0.733162 -0.61013 0.300359 113 94 42
-2.58721 5.62994 3.26341 -0.470786 -0.872732 0.129224 127 107 51
-2.58468 5.63262 3.2589 -0.457328 -0.873602 0.166348 128 108 51
-2.54899 5.70159 3.18378 -0.246848 -0.967817 -0.048962 139 120 60
-2.44932 5.65313 3.00245 -0.695115 -0.679758 0.233976 135 117 57
-2.47682 5.65295 2.9819 -0.966796 -0.228318 -0.114789 141 122 62
-2.50711 5.69743 2.91845 -0.56547 -0.760394 0.319444 147 128 66
-2.31146 5.72367 2.61578 -0.294746 -0.945612 0.137634 126 107 53
-2.1342 5.85542 2.45844 -0.0448529 -0.998927 0.0115594 132 113 58
-2.12557 5.87053 2.37293 -0.175955 -0.983841 -0.0331126 122 104 51
-2.12169 5.91106 2.24677 -0.528022 -0.726792 -0.43928 117 97 44
-2.05198 5.9439 2.13861 -0.123496 -0.975021 0.184615 117 98 46
-2.03618 5.95866 2.03751 0.0677841 -0.994874 0.0750442 118 99 49
-2.03757 5.95611 2.03139 0.0764805 -0.994679 0.06903 118 99 49
-1.99241 5.89564 2.07022 0.224502 -0.973997 -0.0304605 109 91 42
-1.99307 5.89384 2.0646 0.198801 -0.980037 -0.00231551 109 91 42
-1.92948 5.97293 1.97795 0.104419 -0.994426 0.014588 116 98 49
-1.93275 5.96909 1.98686 0.0892414 -0.995675 -0.0258254 110 92 43
-2.02171 5.96563 2.02191 0.139478 -0.984674 0.104703 123 103 54
-1.94369 5.96204 1.8742 -0.171862 -0.980518 -0.0951162 114 96 47
-1.94826 5.95116 1.7574 -0.0998279 -0.943104 -0.317157 96 79 33
-1.8466 5.95445 1.6939 -0.00363347 -0.974722 -0.223391 100 82 35
-1.96377 5.95796 1.62982 0.188423 -0.963199 -0.191691 104 86 43
-1.9619 5.78656 1.37893 -0.405134 -0.656579 0.636216 104 83 36
-1.85745 5.88327 1.10242 -0.176049 -0.733425 0.656578 146 127 68
-1.7529 5.9849 1.02163 -0.428436 -0.891282 0.148522 151 132 72
-1.46901 6.09968 0.421662 -0.644024 -0.759162 0.0943714 186 160 101
-1.91601 5.20149 -1.55464 -0.225451 -0.639505 -0.734987 207 181 111
-4.75482 6.01068 14.0121 -0.682509 -0.111767 -0.722281 80 65 36
-4.70058 6.1142 14.1303 -0.628609 -0.0428568 -0.77654 80 65 37
-4.775 6.16218 14.2309 -0.639347 -0.31759 -0.700266 74 60 34
-4.78412 6.17002 14.2336 -0.644511 -0.22468 -0.730838 76 62 35
-4.68652 5.83559 12.2296 -0.454806 -0.754219 -0.473608 118 92 37
-4.03064 6.16964 11.1112 0.144063 0.255474 -0.956023 141 117 49
-3.54088 5.8588 7.94192 -0.167467 -0.985806 0.0118596 157 134 71
-3.5992 5.89344 8.00255 -0.23085 -0.966905 0.108639 154 132 68
-3.58553 5.92113 7.90788 -0.259224 -0.964534 0.0497728 159 136 75
-3.60132 5.67941 7.38945 0.0363377 -0.735931 -0.67608 182 156 92
-3.60259 5.73957 7.30022 -0.300979 -0.902045 -0.309397 156 131 67
-3.51702 5.72888 7.23042 -0.0888949 -0.899941 -0.426854 157 132 68
-3.52653 5.68017 7.02669 0.271942 -0.948552 -0.162164 148 126 63
-3.58827 5.68961 7.00361 0.240263 -0.909073 -0.340382 146 124 62
-3.50079 5.72747 6.97946 0.14257 -0.931613 -0.334321 146 124 61
-3.5011 5.73565 6.96738 0.156031 -0.912084 -0.379153 145 123 60
-3.05186 5.86266 5.36902 0.271438 -0.503046 -0.820528 108 87 37
-2.8257 5.98727 5.27805 0.458416 -0.57409 -0.678436 110 89 37
-2.92513 5.96756 5.21654 0.103202 -0.990109 0.0950491 100 81 33
-2.82983 5.98028 5.0645 -0.257074 -0.966161 -0.0211212 96 77 30
-2.80064 5.93617 5.14384 -0.64947 -0.751257 -0.117478 104 85 35
-2.8276 5.9842 5.16392 0.110123 -0.993746 -0.0185134 100 82 32
-2.74074 5.96274 4.98537 -0.59922 -0.796002 -0.0855359 96 78 32
-2.83612 5.97803 4.96239 -0.164318 -0.974162 -0.154945 93 75 28
-2.79092 5.97005 5.06189 -0.419857 -0.9044 -0.0760292 97 79 31
-2.7846 5.97516 4.88817 -0.287449 -0.933757 -0.213241 92 74 28
-2.80864 5.94937 4.64697 0.329433 -0.911976 -0.244485 101 82 36
-2.8347 5.89354 4.68464 -0.0082666 -0.966152 0.25784 93 75 31
-2.84062 5.84541 4.62855 -0.22642 -0.969333 -0.0955372 102 84 37
-2.87102 5.84864 4.51446 -0.425513 -0.872531 0.240059 105 86 39
-2.77144 5.82095 4.5117 -0.197217 -0.91553 0.350585 82 66 28
-2.7941 5.81815 4.48582 -0.151991 -0.966645 0.206148 87 70 30
-2.80932 5.85023 4.29525 -0.337636 -0.908922 -0.244668 77 62 24
-2.66915 5.85759 4.22048 -0.134288 -0.977919 -0.160128 79 65 28
-2.72528 5.90188 4.1966 0.00188935 -0.982437 -0.186584 81 67 27
-2.67232 5.86858 4.12775 0.169885 -0.892791 -0.41721 82 67 27
-2.66155 5.91131 4.03323 -0.226601 -0.93986 -0.25557 86 68 25
-2.52282 5.95842 3.98092 -0.259885 -0.860728 0.43773 109 89 43
-2.51793 6.0362 3.92861 0.0316838 -0.95909 0.281323 108 88 42
-2.63874 5.7058 3.30263 -0.390051 -0.892075 0.228173 127 107 51
-2.60925 5.75005 3.22705 -0.282727 -0.954774 0.0920416 142 123 64
-2.61237 5.78299 3.20726 -0.221235 -0.970465 0.096196 148 128 68
-2.61535 5.76039 3.07558 -0.403789 -0.912053 -0.0715149 156 138 75
-2.62913 5.73605 2.99096 -0.536357 -0.840257 0.0793052 161 142 79
-2.60735 5.6871 2.92438 -0.54717 -0.836397 0.0323349 158 139 76
-2.36723 5.85208 2.4565 0.06558 -0.990105 -0.124063 128 107 52
-2.15503 5.97669 2.32288 -0.234334 -0.906664 0.350783 115 95 43
-2.1974 5.95105 2.20733 -0.0806031 -0.934902 -0.345633 121 101 47
-2.15828 5.89419 2.13569 -0.137841 -0.844926 -0.516817 124 104 51
-2.13582 5.9345 2.07485 0.0301185 -0.975494 -0.217957 129 109 59
-2.14657 5.94507 1.97238 -0.163373 -0.983193 -0.0814911 111 93 45
-2.04927 5.94831 1.92398 -0.0722486 -0.994745 -0.0725423 111 94 45
-2.1731 5.92867 1.86547 -0.0370562 -0.99378 -0.105012 92 75 29
-2.06206 5.93833 1.81113 -0.0623772 -0.997764 -0.0239826 91 75 28
-2.04238 5.96861 1.7016 -0.00919601 -0.953179 -0.302267 95 79 36
-2.03943 5.85087 1.39135 -0.370508 -0.598293 0.710471 111 90 41
-2.02017 5.85731 1.20728 -0.446384 -0.762904 0.467674 111 90 41
-1.95532 5.89561 1.1419 -0.366574 -0.920694 0.133964 127 108 55
-1.90419 5.95084 1.05666 -0.252317 -0.964474 0.0782626 134 114 59
-1.85408 5.99488 0.96231 -0.255818 -0.943155 0.212169 138 118 64
-1.87555 5.94833 0.84994 -0.560961 -0.714926 0.417377 144 123 71
-2.23911 5.13964 -1.21592 -0.186913 -0.696147 -0.69314 210 183 113
-4.8469 6.28206 14.3312 -0.878136 -0.174985 -0.445261 84 67 34
-4.77355 6.23556 14.08 -0.767085 -0.108918 -0.632232 92 73 30
-4.88017 5.69904 12.3262 -0.702459 -0.606887 -0.371805 115 90 35
-4.78612 5.82706 12.2037 -0.500173 -0.816876 -0.287298 122 96 39
-4.71002 5.85499 12.0594 -0.50506 -0.799765 -0.324484 124 98 40
-4.31775 5.90525 10.7923 0.0636266 -0.276181 -0.958997 139 114 48
-3.71744 5.75189 7.17747 -0.417861 -0.869226 0.264269 153 127 65
-3.69499 5.77501 7.15241 -0.30686 -0.919669 0.245043 151 126 64
-3.62462 5.77813 7.21775 -0.502863 -0.837897 -0.212265 146 122 58
-3.59158 5.71016 6.9119 0.24211 -0.883851 -0.400238 143 122 60
-3.69598 5.6891 6.82838 0.237054 -0.824938 -0.513111 139 118 57
-3.02391 5.93657 5.25407 -0.0425782 -0.944059 -0.327017 95 77 31
-2.91425 5.98946 5.10699 -0.102278 -0.994748 -0.00404078 95 77 31
-2.92774 6.04235 4.9567 0.113712 -0.882511 -0.456338 90 72 27
-2.92774 6.04235 4.9567 0.113712 -0.882511 -0.456338 90 72 27
-2.92232 6.05358 4.95185 0.100132 -0.880304 -0.463723 90 73 27
-2.82568 6.05129 4.70307 0.0791376 -0.944635 -0.318436 97 79 34
-2.87957 5.93476 4.65142 -0.128706 -0.987417 -0.0918817 106 87 38
-2.86297 5.99952 4.65718 0.0654451 -0.98139 -0.180527 102 83 36
-2.82778 6.03783 4.69699 0.108636 -0.943707 -0.312434 97 79 34
-2.90324 5.92724 4.61336 -0.0961297 -0.984953 -0.143623 109 90 40
-2.93252 5.90388 4.40674 -0.198316 -0.980109 -0.00760064 116 96 44
-2.8788 5.86325 4.34292 -0.337156 -0.909124 -0.244581 100 82 38
-2.95455 5.86394 4.29644 -0.0699986 -0.997017 -0.0325166 116 96 48
-2.95351 5.85987 4.38432 -0.267174 -0.961372 0.066193 116 96 45
-2.94634 5.80271 4.199 0.42518 -0.837373 -0.343553 91 73 30
-2.71473 5.93255 4.11071 0.0799355 -0.958592 -0.273336 82 68 26
-2.70423 5.9734 4.02061 -0.073019 -0.997257 0.0121487 91 73 29
-2.72456 5.94755 3.88932 -0.15786 -0.905959 0.392834 114 104 44
-2.6818 5.95246 3.8173 -0.200569 -0.870177 0.450071 109 89 44
-2.82973 5.75761 3.50116 -0.525951 -0.810437 -0.258007 115 95 45
-2.78003 5.82934 3.45443 -0.0980793 -0.988854 -0.112015 118 99 45
-2.78108 5.74119 3.46563 -0.749702 -0.581958 -0.315074 114 94 42
-2.72886 5.77216 3.4025 -0.432484 -0.901236 -0.0270378 119 99 45
-2.75244 5.81765 3.39074 -0.381331 -0.924146 -0.0232748 128 109 53
-2.73444 5.86244 3.31295 -0.280287 -0.959681 -0.0212644 147 129 69
-2.69284 5.77465 3.34608 -0.315226 -0.93411 0.167545 128 108 52
-2.67127 5.8041 3.34011 -0.00405273 -0.936127 -0.351639 133 112 56
-2.66365 5.84609 3.25545 -0.207984 -0.978121 0.00483378 150 131 71
-2.64764 5.87334 3.19341 -0.176393 -0.93682 -0.302082 158 138 77
-2.6757 5.81791 3.16687 -0.142784 -0.874029 -0.464419 160 140 78
-2.67143 5.84523 3.10475 -0.104727 -0.774369 -0.624008 164 144 82
-2.72466 5.67453 2.71704 -0.281183 -0.930285 0.235597 150 131 69
-2.69234 5.76983 2.80358 -0.333591 -0.883378 0.329181 160 141 79
-2.61571 5.73976 2.76821 -0.503888 -0.843836 0.184494 150 132 70
-2.55772 5.75838 2.68809 0.131236 -0.98954 0.0598897 139 120 61
-2.55047 5.76584 2.58847 0.0237004 -0.801201 -0.597926 133 114 59
-2.6394 5.7236 2.5721 -0.452527 -0.891728 -0.00630415 133 114 59
-2.62137 5.74232 2.49377 -0.209794 -0.975081 0.0721348 124 104 53
-2.46168 5.91924 2.50009 0.185637 -0.982289 -0.0254221 124 104 53
-2.45496 5.83193 2.50686 0.0480989 -0.980319 -0.191469 123 103 51
-2.44454 5.9389 2.50975 0.158745 -0.987312 -0.0038764 129 109 54
-2.45372 5.83332 2.50755 0.0486434 -0.980368 -0.191084 123 103 52
-2.29581 6.05129 2.37518 0.322951 -0.940664 -0.104185 112 92 40
-2.2562 6.08903 2.4008 0.319427 -0.942879 -0.0945751 112 92 40
-2.19165 6.0802 2.32626 0.204538 -0.975747 0.0779853 119 98 45
-2.27068 6.07413 2.27699 0.267827 -0.96338 -0.0129261 122 101 48
-2.35161 5.96294 2.1514 0.0461448 -0.983033 -0.177528 114 94 45
-2.28648 5.93962 2.08875 0.0140145 -0.979132 -0.202741 117 97 49
-2.28029 5.98215 2.16661 -0.144594 -0.922661 -0.357477 123 102 51
-2.28744 5.96091 1.99332 0.0823368 -0.987585 -0.13378 92 75 32
-2.29779 5.96026 1.98119 0.0630779 -0.991643 -0.112536 90 74 30
-2.21688 5.95317 2.02898 -0.0148938 -0.97471 -0.222976 110 92 45
-2.20509 5.97373 1.93591 0.0183106 -0.997898 -0.0621575 89 73 29
-2.08257 5.97284 1.41235 0.0236233 -0.989955 0.139393 105 86 38
-2.02159 5.93659 1.09203 -0.355296 -0.933691 0.0445526 105 84 35
-1.98716 5.96193 0.892044 0.144283 -0.923954 0.354248 151 130 77
-2.07291 5.93589 0.863639 0.184837 -0.939147 0.289549 142 122 65
-4.85443 6.12437 13.042 -0.421118 -0.494901 -0.760087 116 91 38
-3.83729 6.68918 10.787 -0.623891 -0.560291 -0.544825 140 115 51
-3.79868 6.7745 10.9434 -0.55054 -0.549228 -0.628693 137 112 47
-3.74816 5.98752 7.50504 0.200918 -0.965754 -0.164169 177 151 87
-3.75942 5.94621 7.38863 0.079257 -0.98819 -0.131143 153 128 64
-3.84149 5.82411 7.23021 -0.410294 -0.873384 0.262411 163 137 73
-3.76801 5.8121 7.2284 -0.433589 -0.861066 0.265643 156 130 67
-3.8354 5.82505 7.11795 -0.269807 -0.962685 -0.0209956 153 128 66
-3.80845 5.83669 7.15458 -0.376771 -0.902121 0.21029 153 127 65
-3.82731 5.79799 7.12724 -0.527538 -0.826278 0.197404 154 129 67
-3.7369 5.8245 7.14502 -0.268781 -0.933357 0.237912 151 126 64
-3.78554 5.78619 7.0537 -0.188238 -0.978186 -0.0878562 152 127 66
-3.74792 5.87185 7.05654 -0.0306555 -0.988002 0.15137 163 137 77
-3.43592 5.70031 4.98325 0.116921 -0.706717 -0.697768 103 82 34
-3.29719 5.88664 5.25138 0.0715286 -0.981167 0.179429 103 83 33
-3.17845 5.98117 5.14189 0.241086 -0.892405 -0.381433 94 76 29
-3.08239 6.01486 5.11194 0.293102 -0.885754 -0.359905 95 77 30
-3.00148 6.07054 4.71234 -0.394225 -0.918499 -0.0307701 111 91 41
-3.03148 5.98603 4.57177 0.0677388 -0.983628 -0.166995 114 94 43
-2.93047 6.01801 4.67525 -0.415139 -0.909749 -0.00407344 110 91 40
-3.01393 6.01553 4.63444 -0.451236 -0.891569 0.0386141 111 92 41
-2.93524 6.01998 4.67318 -0.42238 -0.905636 -0.0376598 110 91 40
-3.0314 5.95047 4.58929 0.037865 -0.989866 -0.136865 115 95 43
-2.9853 5.93718 4.48446 0.0905106 -0.978241 -0.186689 114 92 42
-3.04166 5.85828 4.32846 -0.174987 -0.982702 -0.060627 120 99 46
-3.06155 5.83863 4.22317 0.106966 -0.986686 -0.12251 123 102 50
-3.00268 5.83087 4.25759 0.0649388 -0.972591 -0.223272 119 99 49
-3.0647 5.84173 4.12743 -0.028764 -0.922269 -0.385478 114 94 44
-3.04104 5.81104 3.95699 0.192587 -0.915649 -0.35284 119 99 48
-2.80595 5.97467 3.84086 0.354968 -0.924385 -0.13968 109 89 39
-2.91235 5.79833 3.55232 0.0170412 -0.960776 -0.2768 107 87 39
-2.94524 5.79859 3.52988 0.0328464 -0.958405 -0.283514 111 91 42
-2.90345 5.82774 3.47252 -0.105646 -0.987083 -0.12044 129 110 57
-2.86707 5.81443 3.48804 -0.0933047 -0.985073 -0.144657 122 102 50
-2.84251 5.79966 3.5042 -0.247404 -0.909359 -0.33445 116 97 46
-2.81987 5.83722 3.4368 -0.100726 -0.989871 -0.100046 131 112 57
-2.85111 5.84625 3.41524 -0.0477612 -0.988997 -0.140012 142 123 66
-2.89574 5.84719 3.39399 -0.0771235 -0.991499 -0.104789 151 132 73
-2.89727 5.8471 3.39343 -0.0768994 -0.991492 -0.105028 151 132 73
-2.87636 5.85279 3.40804 -0.0902161 -0.99155 -0.0932177 148 129 71
-2.80514 5.88192 3.35589 -0.235221 -0.961761 -0.140313 149 130 70
-2.79576 5.91703 3.27552 -0.262822 -0.961367 -0.0818441 157 138 76
-2.71745 5.91735 3.21883 -0.16046 -0.933722 -0.320026 159 139 77
-2.708 5.92704 3.23615 -0.356026 -0.929116 0.0999511 157 138 77
-2.73106 5.9526 3.19709 -0.428388 -0.815918 0.388281 161 141 79
-2.74859 5.85423 3.0578 -0.660514 -0.487832 0.570737 169 147 86
