ply
format ascii 1.0
element vertex 743
property float x
property float y
property float z
property float nx
property float ny
property float nz
property uchar diffuse_red
property uchar diffuse_green
property uchar diffuse_blue
end_header
-4.96347 5.42929 -7.70134 0.0712409 -0.126423 0.989415 189 161 119
-5.02264 5.53041 -7.6536 0.263092 -0.851818 0.452978 183 159 118
-4.89371 5.40194 -7.58634 0.510964 0.224141 0.829866 189 163 121
-4.96261 5.4853 -7.62059 0.417475 -0.714537 0.561384 185 161 120
-5.01638 5.57802 -7.57956 0.480065 -0.680059 0.554127 160 141 103
-4.92198 5.58017 -7.53691 0.378274 -0.817002 0.43522 104 89 58
-4.99934 5.62282 -7.49478 0.501229 -0.577078 0.644787 62 53 29
-5.00886 5.63723 -7.51545 0.477536 -0.676317 0.560852 74 64 37
-5.07015 5.63004 -7.458 0.481061 -0.689952 0.540875 71 61 36
-5.08441 5.71352 -7.40547 0.352103 -0.375266 0.857438 47 45 30
-1.38229 5.6636 -0.464583 0.144045 -0.989464 -0.0145573 114 96 60
0.861963 4.00621 0.429364 0.874067 -0.132829 -0.467293 186 160 102
0.877512 3.99362 0.431751 0.887512 -0.164364 -0.430474 181 156 98
0.943378 3.92727 0.497086 0.880486 -0.0854324 -0.466311 177 151 95
0.945538 3.9219 0.496691 0.882495 -0.0895076 -0.461727 177 151 95
0.906885 4.00628 0.540351 0.877637 -0.198102 -0.436474 160 134 82
-0.202197 6.17219 2.85681 0.557237 -0.624735 -0.546986 108 89 45
-0.147001 6.12037 2.85512 0.540766 -0.502985 -0.674225 103 84 42
1.85663 5.88767 6.1989 -0.169518 -0.904149 -0.392146 133 113 54
1.85994 5.88321 6.19546 -0.177689 -0.904777 -0.387047 133 112 53
-4.81557 5.40524 -7.82858 0.915959 -0.199149 -0.348366 189 161 118
-4.79498 5.43371 -7.71288 0.799602 -0.197765 0.567033 188 162 118
-4.8528 5.53007 -7.66352 0.589171 -0.462881 0.662283 178 157 117
-4.89886 5.51264 -7.69964 0.292707 -0.935579 0.197519 185 161 119
-4.94127 5.56777 -7.62817 0.529012 -0.599481 0.600641 161 142 104
-4.90671 5.54425 -7.61553 0.286413 -0.917455 0.276123 173 152 113
-4.86269 5.6095 -7.61555 0.572172 -0.514973 0.638297 88 75 45
-4.84238 5.58823 -7.58783 0.329049 -0.876306 0.351874 99 85 54
-4.94789 5.63152 -7.56677 0.516685 -0.605017 0.605798 67 56 30
-4.96932 5.64937 -7.49399 0.578087 -0.313253 0.753451 57 50 28
-4.95198 5.70508 -7.51332 0.436323 -0.392859 0.809496 47 45 29
-5.04251 5.74561 -7.46936 0.461367 -0.0327841 0.886603 47 45 32
-1.27603 5.65339 -0.447164 0.289421 -0.934886 0.205485 143 124 80
-1.27954 5.65218 -0.430112 0.290029 -0.905795 0.308897 156 136 90
0.907487 4.05746 0.436938 0.880908 -0.101893 -0.46219 185 159 103
0.894151 4.03975 0.485965 0.873441 -0.133903 -0.468156 167 142 89
-0.194895 6.25857 2.82728 0.195676 -0.66189 -0.723611 125 104 54
-0.13994 6.20142 2.82023 0.355659 -0.694983 -0.624904 118 97 49
-0.0745681 6.12119 2.78148 0.390446 -0.633363 -0.668134 100 82 42
1.92706 5.85917 6.08403 -0.235838 -0.885461 -0.400424 131 111 50
-4.77739 5.53023 -7.90659 0.156058 -0.628251 0.762199 185 164 119
-4.72545 5.5331 -7.79668 0.367776 -0.602429 0.708392 181 159 117
-4.77507 5.52809 -7.71436 0.575956 -0.445564 0.685381 181 160 117
-4.77348 5.59843 -7.6437 0.313101 -0.845394 0.432756 97 84 53
-4.77028 5.59449 -7.65469 0.319758 -0.857325 0.403421 107 93 61
-4.8792 5.68642 -7.56506 0.516931 -0.603162 0.607436 48 43 25
-4.9914 5.85487 -7.49833 0.580855 0.211544 0.786039 55 52 35
-4.96851 5.95846 -7.44026 0.507779 0.252369 0.823693 92 80 56
-1.20506 5.67768 -0.578809 0.211361 -0.97114 0.110513 116 99 60
-1.20125 5.67821 -0.489903 0.304081 -0.938677 0.162544 143 122 77
-1.20382 5.70159 -0.389927 0.35754 -0.882498 0.305552 199 175 121
-1.13898 5.71846 -0.418151 0.260823 -0.948373 0.180441 203 178 122
0.210839 4.77466 0.330424 0.617646 -0.26154 -0.741694 188 161 105
0.168695 4.76834 0.380415 0.693976 -0.270775 -0.667141 187 160 104
0.184141 4.83389 0.435658 0.690818 -0.267189 -0.671848 144 122 71
0.872785 4.16108 0.427003 0.885241 -0.119948 -0.4494 184 158 102
1.56515 3.61035 0.675004 0.933137 -0.0564731 -0.355059 140 120 67
2.75422 3.18493 2.17625 0.856005 -0.128919 -0.500635 87 70 41
2.7587 3.1866 2.17411 0.859911 -0.124725 -0.494972 84 67 37
-4.65697 5.45678 -7.91204 0.977284 -0.148851 -0.150865 186 161 117
-4.65561 5.51633 -7.85031 0.492143 -0.521996 0.696646 183 161 118
-4.65988 5.59314 -7.80181 0.507201 -0.580409 0.637082 149 134 97
-4.67739 5.57017 -7.81088 0.0870096 -0.966451 0.241666 172 154 114
-4.67871 5.61729 -7.81461 0.490787 -0.619824 0.612329 138 123 88
-4.70073 5.59571 -7.72258 0.320496 -0.85435 0.409107 121 106 73
-4.70917 5.65936 -7.67448 0.371613 -0.683347 0.628443 60 53 31
-4.78723 5.74314 -7.57473 0.990194 -0.132216 -0.0450958 48 45 31
-4.93721 5.98113 -7.60078 0.521836 0.18688 0.832324 80 71 49
-4.99227 6.09603 -7.39254 0.26926 0.209838 0.939929 98 83 53
-1.11806 5.67706 -0.617505 0.325566 -0.911288 0.252114 119 100 60
-1.11587 5.69361 -0.534732 0.355218 -0.904815 0.234799 147 126 79
1.62643 3.58979 0.630644 0.943002 0.0220488 -0.332056 141 119 69
2.47463 3.36729 1.90253 0.95695 0.100017 -0.272478 38 25 7
2.51334 3.3326 1.90906 0.811596 -0.217348 -0.542284 44 31 9
2.79059 3.2086 2.23526 0.92102 -0.0472374 -0.38664 71 56 30
2.98833 3.03658 2.27497 0.970194 -0.00207018 -0.242322 59 43 19
-4.56285 5.54779 -8.0012 0.516313 -0.602705 0.608414 185 161 117
-4.61575 5.54454 -7.93502 0.568168 -0.578546 0.585209 183 160 116
-4.62381 5.61934 -7.88241 0.502658 -0.619778 0.602669 155 138 101
-4.65056 5.70921 -7.8408 0.608039 0.252366 0.752728 59 50 25
-4.63904 5.6465 -7.72761 0.511662 -0.695935 0.503861 69 60 35
-4.62495 5.7305 -7.77192 0.646169 -0.150661 0.748176 49 44 26
-4.70079 5.74678 -7.72275 0.648022 -0.134061 0.74973 47 43 27
-4.6918 5.80531 -7.71982 0.671712 -0.0250674 0.740388 48 45 31
-4.76331 5.86615 -7.64797 0.604272 0.225586 0.764177 66 58 39
-4.89176 6.0813 -7.5515 0.918507 -0.319612 -0.232794 86 73 48
-4.77657 5.99737 -7.43758 0.604121 0.273353 0.748543 96 82 54
-1.04662 5.69318 -0.658243 0.240189 -0.966784 0.0873996 121 102 63
-1.03478 5.68807 -0.605784 0.375282 -0.870442 0.318581 138 118 73
-1.04015 5.72807 -0.472196 0.230448 -0.972059 0.0446539 204 182 122
0.209317 4.8999 0.253274 0.525421 -0.349979 -0.77553 190 161 104
0.180026 4.90519 0.321837 0.648938 -0.270798 -0.711019 187 160 104
0.188129 4.97385 0.375413 0.709156 -0.249022 -0.659611 183 157 100
0.227486 4.90917 0.436939 0.715559 -0.270986 -0.643849 143 121 70
0.224361 4.91103 0.43649 0.723412 -0.271048 -0.634986 143 121 70
1.30294 3.96736 0.606986 0.690387 -0.169456 -0.703314 142 121 71
1.54663 3.72367 0.612963 0.751124 -0.10337 -0.652018 134 113 63
1.6227 3.61421 0.592917 0.811139 -0.0647788 -0.581254 157 133 82
1.65258 3.58854 0.596162 0.961104 -0.0467391 -0.272204 153 130 79
1.76998 3.56987 0.800083 0.993917 0.0324864 0.105235 182 155 96
1.74008 3.62479 0.851507 0.882114 -0.448358 0.144391 145 125 71
1.73923 3.62287 0.84333 0.975427 -0.181332 0.125142 153 133 78
2.96465 3.11182 2.31957 0.911672 -0.113359 -0.394973 52 38 16
-4.51193 5.55375 -8.06829 0.502112 -0.603176 0.619728 185 160 117
-4.50428 5.61135 -8.00611 0.61797 -0.527665 0.582823 172 151 111
-4.55987 5.67712 -7.88367 0.56438 -0.570456 0.596704 75 65 36
-4.61832 5.84545 -7.78621 0.668867 0.263896 0.694964 52 48 33
-4.71193 5.94021 -7.73945 0.656038 0.244274 0.714104 64 58 41
-4.84879 6.03477 -7.64897 0.72096 -0.0292947 0.692357 78 68 47
-4.80907 6.13453 -7.62197 0.981801 0.0150841 -0.189311 88 74 49
-0.929502 5.69307 -0.699472 0.282528 -0.926881 0.247123 120 103 62
-0.95216 5.72606 -0.637267 0.150054 -0.987699 0.0439738 134 116 73
-0.957161 5.74139 -0.526411 0.202095 -0.973916 0.103174 207 186 128
1.57602 3.7264 0.582956 0.689631 -0.134551 -0.711552 152 130 78
1.60185 3.70124 0.583747 0.88787 -0.0312032 -0.459035 154 131 79
1.68839 3.5849 0.552903 0.966205 0.00296658 -0.257756 160 137 84
1.649 3.61236 0.5644 0.869215 -0.0630953 -0.490392 159 136 83
1.58574 3.71051 0.585952 0.766101 -0.100392 -0.634831 152 130 77
1.5409 3.73324 0.613731 0.735978 -0.111685 -0.66773 133 113 63
1.57796 3.71644 0.584957 0.679966 -0.138935 -0.719961 152 130 77
1.65843 3.59888 0.562314 0.892189 -0.0534045 -0.448493 159 136 84
1.69222 3.58574 0.551304 0.968841 0.00572652 -0.247619 160 137 84
1.5744 3.72137 0.585849 0.668612 -0.143441 -0.729645 151 129 77
1.60655 3.691 0.586033 0.913591 -0.01907 -0.406187 154 131 79
1.60447 3.71274 0.579064 0.898562 -0.0391431 -0.437098 154 132 80
1.7583 3.64958 0.823661 0.830923 -0.555411 -0.0329398 177 153 95
1.77368 3.67236 0.859635 0.977195 -0.208732 -0.0390036 147 128 74
1.74606 3.72274 0.910383 0.962642 -0.112354 0.246368 98 85 37
1.75835 3.74176 0.98367 0.884524 -0.29787 0.359012 44 44 9
-4.37721 5.53154 -8.1733 0.939209 -0.321784 -0.119754 187 161 118
-4.43578 5.52674 -8.11045 0.921746 -0.374171 -0.101883 187 161 118
-4.43597 5.60926 -8.06382 0.47027 -0.609586 0.638162 175 153 112
-4.43816 5.67101 -8.00605 0.541373 -0.566687 0.621112 114 99 67
-4.50421 5.67774 -7.94829 0.54347 -0.575262 0.611322 94 82 51
-4.55519 5.92836 -7.68312 0.584895 0.186955 0.789269 84 75 53
-4.76715 6.09659 -7.73631 0.875097 0.174072 0.451558 83 72 48
-0.841606 5.68588 -0.701686 0.365012 -0.873819 0.321259 163 143 96
-0.854269 5.70467 -0.746711 0.288825 -0.908451 0.302153 129 110 68
-0.885446 5.75405 -0.555516 0.247608 -0.915672 0.3166 211 186 131
1.4094 3.92235 0.545718 0.665335 -0.185343 -0.723172 151 128 76
1.33848 4.04616 0.564968 0.814434 -0.173993 -0.553556 145 123 69
1.62416 3.72344 0.551045 0.810822 -0.0598451 -0.582225 158 135 82
1.77203 3.70243 0.818165 0.844524 -0.528631 -0.0856104 173 150 93
-4.23928 5.52847 -8.18718 0.905985 -0.423285 0.00466228 183 159 116
-4.34367 5.56552 -8.08865 0.620816 -0.537081 0.571079 181 158 116
-4.28406 5.62923 -8.09036 0.570796 -0.510723 0.642926 155 137 101
-4.364 5.65621 -8.05213 0.573189 -0.566196 0.592349 134 118 84
-4.38411 5.74471 -8.01712 0.627091 0.28211 0.726065 53 47 23
-4.43866 5.73492 -7.94675 0.575393 -0.543156 0.611477 52 46 25
-4.44505 5.80289 -7.88973 0.978507 -0.202001 0.0414603 47 45 30
-4.39378 5.86537 -7.76515 0.641108 0.258341 0.722662 65 58 40
-4.56569 5.92105 -7.86009 0.514508 -0.587227 0.624856 57 51 36
-4.66019 6.06717 -7.85606 0.628647 0.258893 0.733333 90 80 56
-0.774332 5.71323 -0.738637 0.351285 -0.897161 0.267771 161 140 95
-0.777696 5.75078 -0.643124 0.305678 -0.924239 0.228788 212 189 135
1.44819 3.97055 0.583998 0.606724 -0.237673 -0.75855 161 137 80
1.58135 3.8116 0.579954 0.628727 -0.208941 -0.74903 150 129 76
1.587 3.8036 0.58111 0.783621 -0.193981 -0.590178 154 132 79
1.60045 3.79833 0.575821 0.837206 -0.194224 -0.511236 153 131 79
1.78817 3.73817 0.863782 0.898176 -0.15957 -0.409655 144 124 69
-4.17421 5.49195 -8.30832 0.995419 -0.0954608 0.0053838 189 163 119
-4.19784 5.63899 -8.14595 0.293761 -0.902491 0.314983 150 132 97
-4.20023 5.67857 -8.06801 0.316065 -0.856822 0.407379 81 69 44
-4.28102 5.76818 -8.05851 0.500766 0.219191 0.83737 51 45 27
-4.38223 5.88711 -7.96155 0.473745 0.0117381 0.880584 52 48 34
-4.45001 5.97393 -7.92832 0.550615 -0.220791 0.805031 79 69 50
-4.50837 6.05583 -7.88427 0.677186 -0.117494 0.726371 88 77 53
-0.780173 5.74996 -0.818387 -0.0217646 -0.987904 -0.153532 119 100 61
-0.688164 5.69418 -0.755174 0.262132 -0.960415 0.0942832 192 171 121
1.57162 3.90648 0.572815 0.62121 -0.222758 -0.751317 148 127 73
1.51052 4.01369 0.591002 0.591891 -0.259028 -0.763262 132 112 61
1.80948 3.79907 0.869685 0.891561 -0.147251 -0.428294 135 115 63
1.77884 3.87271 0.89777 0.953684 -0.266759 0.139018 102 85 41
-4.10368 5.52142 -8.23912 0.821778 -0.162986 0.546 185 160 117
-4.1277 5.64988 -8.20282 0.247554 -0.937641 0.24402 150 133 98
-4.13858 5.68861 -8.1285 0.373822 -0.817727 0.437699 67 58 32
-4.18945 5.75948 -8.09343 0.525066 -0.310878 0.792251 49 44 27
-4.30622 5.88903 -8.02493 0.535544 0.265214 0.801782 51 47 35
-4.35811 5.97479 -7.97845 0.54359 -0.198745 0.815482 75 67 48
-4.34774 5.98008 -7.97671 0.0321131 -0.174159 0.984194 74 66 45
-4.3894 6.0603 -7.92821 0.443962 -0.256135 0.858658 88 77 52
-4.45881 6.16812 -7.92098 0.569682 -0.301881 0.764415 87 75 49
-0.692469 5.75028 -0.873884 0.0712661 -0.997251 -0.0202761 116 98 56
-0.683452 5.71309 -0.805424 0.312773 -0.889732 0.33249 144 124 82
1.57288 3.99559 0.567357 0.60911 -0.242618 -0.755064 145 124 73
3.57964 3.0975 3.07001 0.815088 -0.169719 -0.553919 63 52 16
-4.05322 5.54587 -8.31193 0.92002 -0.342763 0.189939 184 159 117
-4.02085 5.61355 -8.32012 0.576304 -0.538642 0.614604 175 153 113
-4.11599 5.61822 -8.28528 0.36942 -0.866474 0.335787 176 155 113
-4.05164 5.66078 -8.25898 0.286484 -0.915954 0.280989 146 129 94
-4.07124 5.6977 -8.18357 0.344029 -0.801921 0.488433 68 57 32
-4.14433 5.79051 -8.17513 0.563111 0.258401 0.784943 50 45 28
-4.17272 5.86495 -8.10338 0.652194 0.287803 0.701293 53 48 36
-4.29744 6.05983 -7.97991 0.516944 -0.206006 0.830861 85 76 52
-4.36267 6.16548 -7.9685 0.481901 -0.270183 0.833531 88 77 51
-4.4244 6.2679 -7.93692 0.934054 -0.344333 0.0947527 90 78 49
-0.605226 5.7181 -0.912737 0.282053 -0.896713 0.341103 123 104 65
-0.603356 5.74179 -0.835895 0.302285 -0.892077 0.33589 163 144 96
1.85905 3.86585 0.840928 0.88467 -0.396178 0.24577 169 146 90
-3.93885 5.56098 -8.44962 0.975776 -0.210915 -0.0580981 182 158 115
-3.94539 5.60638 -8.36932 0.654881 -0.406471 0.637112 177 154 113
-3.97372 5.6693 -8.31074 0.308134 -0.860638 0.405407 141 124 91
-3.98252 5.71321 -8.23791 0.33921 -0.852058 0.398666 62 52 28
-3.99166 5.70857 -8.23752 0.357714 -0.832965 0.42215 65 55 30
-4.04912 5.7862 -8.21148 0.691666 -0.175664 0.700529 48 43 25
-4.05378 5.79782 -8.22266 0.698031 -0.100295 0.709009 48 43 25
-4.12965 5.90556 -8.18994 0.456387 0.10854 0.883137 50 47 34
-4.082 5.93173 -7.97527 0.68386 0.372207 0.627533 83 73 51
-4.26943 6.06678 -8.08781 0.60735 0.248256 0.754649 84 74 52
-4.29974 6.21109 -8.05504 0.753978 -0.182624 0.631004 87 76 50
-0.515283 5.7559 -0.883853 0.174659 -0.967448 0.183137 161 145 100
-0.520174 5.78248 -0.772819 0.188071 -0.964186 0.187017 217 195 138
1.56989 4.10323 0.568924 0.686516 -0.134138 -0.714634 140 119 72
1.5889 4.07541 0.567229 0.680949 -0.142816 -0.71827 142 121 74
1.60299 4.08384 0.560293 0.692489 -0.128765 -0.709844 145 124 76
1.90294 3.87212 0.799652 0.834647 -0.459315 0.303963 175 151 92
2.78871 3.65709 2.24013 0.0305218 -0.809744 -0.585989 40 35 13
-3.88174 5.625 -8.43646 0.584399 -0.422814 0.692608 175 154 112
-3.90973 5.67358 -8.36722 0.35807 -0.804012 0.474712 148 131 97
-3.91676 5.72108 -8.29622 0.345436 -0.828695 0.440385 62 53 29
-3.98871 5.79821 -8.27406 0.664689 -0.0776904 0.74307 49 43 25
-3.97736 5.82681 -8.28107 0.665803 -0.166036 0.727419 46 42 26
-4.04368 5.92332 -8.24071 0.49039 0.195105 0.849383 49 45 32
-4.12466 6.05614 -8.22271 0.495925 0.20486 0.843855 79 70 48
-4.21692 6.20049 -8.21165 0.599893 0.220056 0.769223 86 76 50
-0.498571 5.73009 -0.980999 0.233317 -0.941398 0.243585 124 105 66
-0.423286 5.78865 -0.831749 0.184457 -0.966943 0.176061 217 195 136
1.64572 4.05842 0.540462 0.736355 -0.100106 -0.669149 155 133 84
1.6761 4.05356 0.537266 0.661855 -0.248679 -0.707183 157 135 84
1.67741 4.11715 0.615174 0.658613 -0.246961 -0.710802 151 131 74
-2.56893 3.64473 -9.23779 0.275032 0.0700052 0.958883 155 141 119
-3.8155 5.56806 -8.53938 0.594028 -0.57186 0.56578 186 161 119
-3.84658 5.68356 -8.42681 0.322726 -0.852517 0.411172 151 134 99
-3.84679 5.67989 -8.42627 0.321772 -0.838359 0.440019 154 136 101
-3.84923 5.72638 -8.35134 0.378763 -0.818962 0.431092 65 55 31
-3.89621 5.79926 -8.31791 0.508277 -0.320787 0.799218 47 43 25
-3.95988 5.93352 -8.31743 0.491696 0.13196 0.86071 50 46 32
-3.97701 5.91154 -8.2754 0.684891 0.22725 0.692302 49 45 32
-3.95654 5.93866 -8.28834 0.514468 0.118057 0.849344 51 48 33
-4.08893 6.21426 -8.15873 0.95065 0.0143631 0.309933 87 75 49
-0.427819 5.77459 -1.05003 0.0282551 -0.997107 -0.0705696 119 101 62
1.59049 4.24956 0.556498 0.699971 -0.266474 -0.662595 145 124 72
1.55926 4.3176 0.620912 0.994477 0.053811 0.0901129 170 148 91
-3.6805 5.52264 -8.5571 0.971409 0.0233394 0.236261 180 157 114
-3.73706 5.56129 -8.58994 0.467327 -0.428011 0.773571 184 160 117
-3.75157 5.63567 -8.53918 0.547442 -0.515609 0.659132 177 156 114
-3.73652 5.61393 -8.51769 0.678039 -0.222491 0.700543 177 155 114
-3.77968 5.69101 -8.48443 0.373979 -0.847395 0.376909 155 137 101
-3.7803 5.68541 -8.48335 0.403975 -0.80217 0.43969 158 140 103
-3.78324 5.73458 -8.40835 0.391087 -0.806342 0.443693 67 57 33
-3.78387 5.73278 -8.40773 0.388041 -0.80965 0.440331 68 58 34
-3.7416 5.79908 -8.41052 0.806387 -0.413088 0.423201 50 44 26
-3.82426 5.80346 -8.36963 0.557702 -0.363421 0.746253 49 44 26
-3.88716 5.95621 -8.38271 0.401903 -0.184467 0.896909 52 49 33
-3.93544 6.05923 -8.35323 0.504524 -0.125843 0.854177 69 62 42
-4.00437 6.10677 -8.31134 0.602883 0.249039 0.757965 79 71 49
-3.99532 6.18304 -8.2422 0.81599 -0.228317 0.531066 86 77 51
-4.10839 6.30215 -8.26978 0.756066 -0.322978 0.569254 93 79 51
-0.341271 5.77722 -1.10205 0.0192617 -0.999554 -0.0228043 118 99 61
-0.341192 5.7698 -1.00345 0.307736 -0.886715 0.345016 148 131 87
-0.323858 5.79422 -0.891231 0.162608 -0.975023 0.151293 217 192 135
1.45202 4.46765 0.482704 0.672655 -0.299281 -0.676732 169 145 89
1.56262 4.41178 0.622994 0.999069 0.00012511 0.0431429 168 146 87
-3.64379 5.63547 -8.57751 0.582713 -0.356037 0.730536 176 156 113
-3.62646 5.69505 -8.57597 0.0041154 -0.958112 0.286365 156 139 102
-3.67285 5.62866 -8.5893 0.618379 -0.321904 0.716928 176 156 113
-3.69926 5.69408 -8.52976 0.0601676 -0.977645 0.201469 162 145 109
-3.71848 5.74379 -8.46622 0.230469 -0.315954 0.920357 75 64 37
-3.74086 5.80099 -8.41126 0.80885 -0.409223 0.422255 50 44 26
-3.79144 5.96294 -8.43301 0.470114 0.0794341 0.879024 54 51 35
-3.95449 6.23787 -8.3549 0.722944 -0.179721 0.667123 88 78 50
-0.223634 5.78125 -1.03018 0.116291 -0.989443 0.0864781 205 187 140
-0.23286 5.80101 -0.931165 0.0925633 -0.990915 0.0975701 212 186 127
1.5154 4.46403 0.535564 0.68491 -0.287136 -0.669665 167 144 87
-3.57042 5.6485 -8.64088 0.589982 -0.426148 0.685798 176 155 112
-3.55462 5.69412 -8.64789 0.203111 -0.925846 0.318677 162 144 104
-3.61664 5.69479 -8.59154 0.0400748 -0.961794 0.270827 169 152 112
-3.58048 5.74252 -8.57189 0.134163 -0.386135 0.912634 88 76 45
-3.58786 5.78655 -8.57478 0.248771 -0.13914 0.958516 60 52 26
-3.64656 5.76066 -8.51488 0.211522 -0.343764 0.914923 65 57 31
-3.67256 5.82726 -8.4913 0.879785 -0.194165 0.433911 48 43 26
-3.86296 6.10974 -8.44027 0.504194 0.23232 0.831755 76 70 48
-3.96039 6.25193 -8.44931 0.69581 0.115703 0.708845 94 81 53
-0.235377 5.77001 -1.13269 0.126152 -0.988599 0.0822072 116 96 59
-0.146177 5.80656 -0.982147 0.089564 -0.993905 0.0642787 209 184 123
1.4001 4.67052 0.43933 0.833778 -0.529908 -0.154955 166 144 86
1.46103 4.55285 0.487627 0.934425 -0.352146 -0.0533236 165 142 87
1.46952 4.54385 0.482969 0.857487 -0.214322 -0.467742 156 133 81
1.46517 4.55591 0.474117 0.855171 -0.217466 -0.470522 159 136 82
1.52939 4.5227 0.537094 0.876072 -0.355008 -0.326294 153 132 78
1.55052 4.5238 0.609471 0.993426 -0.0133437 -0.113695 165 143 86
1.52154 4.60812 0.664876 0.984671 -0.064172 -0.162189 136 117 62
2.12169 4.46346 1.71972 -0.211409 -0.971313 -0.108895 45 44 10
-3.4756 5.60762 -8.66049 0.30386 0.110326 0.946307 178 155 114
-3.49596 5.65442 -8.70242 0.616694 -0.41427 0.66938 175 153 112
-3.48497 5.70502 -8.71679 0.145204 -0.91721 0.371002 164 145 105
-3.51408 5.76365 -8.61718 0.300233 -0.375409 0.876885 75 65 36
-3.65505 5.88499 -8.56065 0.263566 -0.0686617 0.962195 45 42 27
-3.72826 6.02938 -8.57796 0.266571 0.0173015 0.96366 48 45 32
-3.68367 6.06645 -8.48877 0.529329 0.155885 0.833973 70 64 45
-0.13927 5.77312 -1.1877 0.148054 -0.978864 0.141087 119 101 62
-0.140844 5.79131 -1.0816 0.179643 -0.972471 0.148423 200 181 135
1.46365 4.62414 0.375711 0.846731 -0.53028 -0.0430106 177 154 98
1.49114 4.60859 0.485492 0.92175 -0.280556 -0.267705 167 144 88
1.47436 4.63642 0.485236 0.901933 -0.221019 -0.371036 164 143 86
1.55731 4.5801 0.535249 0.945363 -0.11261 -0.305953 145 124 71
1.53065 4.63523 0.599881 0.987763 0.0737354 -0.13743 167 146 89
1.53643 4.63313 0.599958 0.994361 0.0620864 -0.0859737 166 145 88
2.13173 4.45436 1.65942 -0.117475 -0.959156 0.257333 91 84 39
3.09459 3.7082 2.42314 0.74805 -0.247076 -0.615934 50 47 18
-3.39946 5.59152 -8.83376 0.866254 -0.493868 -0.0754907 179 156 113
-3.41609 5.66009 -8.76073 0.643059 -0.38818 0.660145 175 154 113
-3.44002 5.73567 -8.70145 0.622068 -0.254976 0.740283 140 125 90
-3.50813 5.80596 -8.631 0.253211 -0.155352 0.954856 57 50 26
-3.56321 5.90464 -8.60878 0.372746 -0.039433 0.927095 45 45 29
-3.62527 6.0242 -8.59554 0.505958 0.10889 0.855657 55 52 37
-3.75601 6.2245 -8.48792 0.648903 -0.0582607 0.758638 91 79 53
-0.0489218 5.79941 -1.13728 0.140148 -0.982487 0.122793 197 177 131
-0.05894 5.78093 -1.07191 -0.184568 -0.949306 -0.254465 208 184 125
0.907148 5.34064 0.220312 0.977158 0.0556161 -0.205107 177 152 98
1.48361 4.72419 0.487339 0.917929 -0.256636 -0.302563 160 140 82
1.45917 4.75482 0.497914 0.985638 0.0312493 -0.165953 163 142 84
1.56056 4.64257 0.535273 0.995048 -0.0526451 -0.0843054 157 136 79
-3.3154 5.65591 -8.79958 0.665098 -0.0563338 0.744629 175 153 111
-3.3654 5.74784 -8.76243 0.623649 -0.265215 0.735339 139 123 90
-3.42844 5.82476 -8.6867 0.257789 -0.148257 0.954759 53 46 23
-3.48148 5.92154 -8.66206 0.982434 -0.169884 0.0772221 44 41 28
-3.59533 6.17163 -8.56028 0.667691 -0.0835679 0.739733 84 77 52
-3.68716 6.29459 -8.58853 0.658189 -0.113748 0.744211 90 78 51
-3.81805 6.39858 -8.5803 0.978802 -0.129428 -0.15873 96 82 54
1.47245 4.71111 0.380447 0.890518 -0.361391 -0.27636 173 150 95
1.55814 4.78082 0.672329 0.949067 -0.192278 -0.2496 122 102 51
1.5446 4.85272 0.73752 0.986219 -0.164305 -0.0193897 92 75 34
-3.26511 5.72406 -8.77699 0.709022 0.214024 0.671924 125 109 77
-3.33787 5.86784 -8.75892 0.592928 0.212452 0.776724 48 43 23
-3.39544 5.98347 -8.7508 -0.106172 0.126911 0.986215 45 43 27
-3.52397 6.09928 -8.63695 0.877365 -0.0211067 0.47936 74 67 45
1.41061 4.97132 0.501102 0.952339 -0.168719 -0.254136 148 126 74
1.55916 4.93899 0.737613 0.984529 -0.056392 0.1659 89 75 34
-9.59549 0.12546 -3.56211 0.660581 0.376737 0.649386 180 157 115
-10.7557 0.340875 -2.84475 0.452425 0.803152 0.387631 181 159 119
-16.9866 1.54086 0.740529 0.555089 0.258631 0.79056 141 127 87
-8.12876 -0.0822442 -4.34987 0.422566 0.54662 0.722941 159 140 104
-8.35835 -0.0606551 -4.28261 0.429512 0.394022 0.812568 165 145 103
-9.78286 0.18098 -3.81694 0.526668 -0.0872247 0.845584 170 148 108
-9.77587 0.182637 -3.81175 0.502435 -0.0322499 0.864014 170 148 108
-16.4662 1.7349 0.509894 0.69856 0.268857 0.663122 143 129 89
-10.4446 0.43621 -4.02969 0.316719 -0.206238 0.925827 171 149 108
-10.3704 0.528046 -3.80726 0.340584 -0.674724 0.65479 174 153 109
-10.3704 0.528046 -3.80726 0.340584 -0.674724 0.65479 174 153 109
-8.05803 2.43341 4.46956 0.944005 0.322024 -0.0717938 196 168 116
-8.0393 2.51474 4.6108 0.792481 0.101633 -0.60137 186 155 101
-7.94112 2.58715 4.67263 0.472156 -0.0636645 -0.879213 154 117 57
-10.061 0.775994 -3.54817 0.314105 0.214688 0.924796 117 102 44
-12.0593 1.27028 -2.55026 0.88286 0.268236 -0.385497 196 174 129
-16.7821 2.14989 -0.611655 0.716964 0.139252 -0.68306 109 93 63
-7.86255 2.37125 3.59819 0.687068 -0.202231 -0.697883 179 158 110
-8.09658 2.59815 4.51456 0.96747 0.047347 -0.248517 197 170 118
-7.99845 2.7164 4.74336 0.971289 0.232315 -0.0512623 146 110 46
-7.99842 2.72244 4.7368 0.972475 0.227783 -0.0490644 146 110 46
-16.7066 2.66169 0.497725 0.56819 0.248891 0.784356 136 122 83
-8.14199 2.74922 4.53326 0.891516 -0.0287187 -0.452079 198 171 120
-8.069 2.81473 4.64174 0.929371 -0.0467887 -0.366169 168 133 79
-9.8466 0.866387 -4.09543 0.265773 -0.0729383 0.961273 158 140 93
-8.09066 2.88796 4.51049 0.984186 0.0616155 -0.166076 192 164 113
-8.05249 2.95481 4.61229 0.990692 0.0795855 -0.110429 168 135 84
-8.05096 2.9556 4.62387 0.989717 0.0914304 -0.110008 164 131 79
-8.02594 2.87677 4.7352 0.974106 0.17978 -0.137102 151 115 55
-8.04087 2.88633 4.77347 0.990248 0.138778 -0.0122579 153 115 54
-8.09053 3.03632 4.5021 0.984736 0.0370294 -0.170071 199 171 118
-8.05857 3.10597 4.61288 0.974649 0.0951978 -0.202477 169 137 84
-8.06421 3.10239 4.60512 0.979503 0.0765449 -0.186321 174 142 89
-8.02901 3.13178 4.71365 0.986692 0.153112 0.0547238 151 115 57
-8.64091 3.35203 5.27774 0.795207 -0.602222 0.0705246 154 120 62
-8.07401 3.17843 4.47134 0.997624 0.0311961 -0.0614209 199 171 119
-8.06182 3.25172 4.59458 0.98096 -0.0180637 -0.193366 175 143 89
-8.03028 3.29112 4.69294 0.992188 0.101755 0.0721729 151 116 58
-8.09527 3.3045 4.66593 0.961102 -0.0817955 0.263804 162 129 77
-16.3726 3.66362 0.252499 0.982883 -0.0871832 0.162299 131 115 80
-8.02291 3.30413 4.38497 0.998043 0.0552518 0.0292804 201 173 121
-8.09115 3.3942 4.57169 0.947043 -0.154072 0.28173 179 148 97
-8.04825 3.3916 4.546 0.999804 0.0124699 -0.0153761 180 150 95
-8.03743 3.45387 4.68163 0.992921 0.0939925 0.0726141 151 116 56
-8.07404 3.46747 4.6811 0.966169 -0.223531 0.128653 152 117 59
-11.6215 2.29617 -2.57694 0.650624 0.0420633 0.758234 193 169 124
-8.07986 3.40852 4.31412 0.990278 0.138979 -0.00578806 210 183 126
-8.01759 3.45679 4.36444 0.997515 0.0675805 0.0198962 200 172 118
-8.02574 3.54111 4.51325 0.994054 0.108516 -0.00900868 176 145 92
-16.2381 3.98607 0.38832 0.869872 -0.473049 0.139814 148 134 95
-8.10826 3.56763 4.31584 0.998478 0.0467017 -0.0293419 209 181 125
-8.06314 3.62744 4.39829 0.990218 0.118141 -0.0742338 199 172 119
-8.06512 3.62173 4.66007 0.994045 0.0744875 0.079539 159 124 66
-8.03253 3.61156 4.65458 0.993144 0.0935712 0.0700664 150 115 55
-8.03663 3.61911 4.65391 0.993664 0.0847027 0.0738737 150 115 56
-7.93908 3.64848 4.65797 0.989386 -0.0738193 0.125167 149 114 57
-7.98058 3.65516 4.66894 0.843031 0.0330604 -0.536848 152 114 49
-7.98058 3.65516 4.66894 0.843031 0.0330604 -0.536848 160 122 58
-7.86925 1.31687 -4.61551 0.658448 0.0252224 0.752203 30 27 22
-7.92877 1.32917 -4.54225 0.754356 0.272638 0.597173 28 25 18
-8.11278 3.72005 4.29778 0.997781 0.0605609 0.0276623 208 181 124
-8.05737 3.78081 4.66644 0.988364 -0.0891965 0.123208 158 123 65
-8.04573 3.77852 4.65172 0.993513 0.0909573 0.0682583 149 114 56
-8.01955 3.8437 4.47951 0.996253 0.086263 -0.00614792 173 143 87
-7.99396 3.87923 4.71008 0.83942 0.48849 -0.238224 150 109 44
-5.41991 0.374115 -7.11438 0.452015 -0.870518 0.194633 26 25 20
-8.04694 3.93499 4.36292 0.99615 0.087646 -0.00200942 198 170 117
-8.03682 4.04151 4.67583 0.91649 -0.166687 -0.363678 147 106 48
-7.7908 1.68923 -4.82701 0.95487 0.138554 0.262726 135 129 149
-8.11995 4.07853 4.3917 0.99812 0.0599094 0.01292 198 169 117
-8.14112 4.16753 4.54953 0.999235 0.0345271 0.01839 183 154 103
-8.07014 4.20151 4.70273 0.622796 0.568601 -0.537417 125 91 42
-8.22026 4.28856 4.48415 0.392548 -0.638366 -0.662114 200 176 123
-8.20104 4.24799 4.44193 0.89644 -0.0504268 -0.440287 198 173 121
-8.1457 4.29048 4.61891 0.784345 -0.101522 -0.611961 139 113 69
-5.5816 0.514867 -8.0142 0.304495 -0.86592 0.39682 184 161 119
-8.30797 4.48573 4.66661 0.779423 -0.114823 -0.615886 157 132 89
-3.94921 0.443131 -7.06401 0.0387891 0.145956 0.98853 193 169 125
-3.92784 0.433219 -6.99046 0.0484286 0.140977 0.988828 191 168 124
-3.99314 0.442681 -7.08605 0.189844 0.107892 0.975868 192 168 125
-6.89769 1.66264 -5.3946 0.885329 0.407912 0.223161 129 123 150
-7.17389 1.74952 -5.29609 0.607935 0.0783631 0.79011 105 103 118
-8.07954 2.28028 -4.14063 0.423645 -0.524201 0.738741 176 151 109
-3.9548 0.496645 -7.09792 0.413238 0.807263 0.42138 193 169 125
-14.1373 4.81449 -1.25452 0.51445 -0.583399 0.62848 167 149 123
-14.8338 4.99117 -0.963752 0.847435 -0.491503 0.200694 168 151 127
-11.9336 3.92564 -2.51025 0.670161 -0.00957647 0.742154 186 163 121
-14.0255 4.92798 -1.1303 0.669656 -0.12273 0.73246 165 148 118
-14.074 5.01706 -1.05328 0.51949 -0.54418 0.658785 138 121 93
-3.4958 0.579061 -7.09925 -0.142573 -0.366168 0.919562 197 173 128
-3.8656 0.668153 -7.00098 -0.0771025 -0.505086 0.859618 187 164 120
-6.65333 1.86487 -5.72484 0.279862 -0.439887 0.853333 88 81 107
-6.70081 1.85523 -5.66704 0.279488 -0.486026 0.828049 72 69 89
-6.75497 1.84185 -5.61541 0.155967 -0.428038 0.890201 70 66 87
-4.09302 0.816823 -7.19209 0.187999 -0.819539 0.541306 184 161 119
-6.42956 1.86688 -5.59545 0.482114 -0.125164 0.867122 57 55 69
-6.39161 1.94557 -5.58483 0.556705 -0.108769 0.823558 55 52 65
-6.44877 1.9887 -5.547 0.597656 -0.0258373 0.801336 105 104 119
-6.49439 1.92178 -5.56104 0.379498 -0.023739 0.924888 49 45 58
-6.50073 1.9226 -5.55704 0.378437 -0.0306028 0.925121 48 45 58
-6.51902 1.98089 -5.50445 0.570471 -0.114663 0.813275 102 100 115
-6.58008 1.98157 -5.4655 0.533462 0.0948402 0.84049 108 107 121
-7.452 3.85168 0.274981 0.378118 -0.830179 -0.409671 94 79 52
-6.8916 4.27252 2.46782 0.79389 0.385667 0.470106 84 70 43
-7.74632 4.71794 3.51109 0.891711 0.251823 -0.376082 201 177 124
-7.74084 4.73836 3.53423 0.934137 0.293642 -0.202883 206 181 126
-7.74194 4.8046 3.91813 0.906293 -0.379606 0.185831 197 168 117
-4.78954 1.09057 -7.32835 0.162731 0.156087 0.974246 177 154 113
-6.18503 1.832 -6.10793 0.591572 -0.152654 0.791669 144 135 138
-6.17261 1.88774 -5.83351 0.161559 0.0473183 0.985728 87 84 98
-6.29214 1.96422 -5.80988 0.478258 -0.783628 0.39648 49 43 53
-6.29154 1.97725 -5.68818 0.606125 -0.654215 0.452345 65 58 74
-6.30142 1.93055 -5.74752 0.909888 -0.226963 0.347262 48 37 47
-6.30653 2.03227 -5.63867 0.599814 -0.285989 0.747284 109 108 122
-6.33809 1.97285 -5.62926 0.735384 -0.135896 0.663885 78 74 89
-6.35869 2.01391 -5.57526 0.653236 -0.0993092 0.750614 111 110 125
-6.44514 1.99859 -5.54514 0.51671 -0.19847 0.832839 113 113 128
-6.37878 2.02324 -5.60032 0.140994 -0.136369 0.980573 127 126 142
-6.44722 2.06782 -5.5519 0.56502 0.127675 0.815139 60 60 67
-6.50018 2.03247 -5.50081 0.556395 0.0725437 0.827745 93 93 104
-6.56803 2.1339 -5.52725 0.48978 0.298848 0.819027 46 44 42
-6.62612 2.07906 -5.4814 0.470979 0.190634 0.8613 46 46 50
-7.59245 4.86093 3.79325 0.957378 -0.285618 0.0430141 188 158 104
-6.74296 5.37824 6.42737 0.0936685 -0.104259 -0.990129 151 124 54
-6.16263 1.90431 -6.11827 0.538418 -0.172671 0.824798 94 89 96
-6.19759 1.94571 -6.06485 0.934922 -0.0982834 0.340972 64 58 65
-6.11401 2.06187 -5.73755 0.75631 0.188541 0.626457 78 77 88
-6.16556 2.01874 -5.68529 0.756491 0.188646 0.626206 129 127 146
-6.21935 2.10444 -5.68598 0.757172 0.187852 0.625621 42 43 40
-6.42641 2.1052 -5.61393 0.490648 0.181271 0.852294 47 47 48
-6.5361 2.17106 -5.58468 0.492482 0.298544 0.817516 41 38 35
-8.92219 3.22277 -4.53885 0.476176 -0.201759 0.855891 183 158 114
-8.95319 3.24397 -4.56679 0.403206 -0.424238 0.810831 189 163 118
-9.23668 3.38467 -4.43059 0.558183 -0.243685 0.793127 188 163 119
-7.32787 4.58265 2.40654 0.793154 0.384591 0.472225 86 72 46
-7.03565 4.47964 2.47701 0.797457 0.379245 0.469291 85 71 45
-7.64189 5.00765 3.78841 0.979792 -0.170979 0.103798 173 148 96
-4.30236 1.29931 -6.78496 0.110537 0.0651372 0.991735 165 146 104
-6.04294 2.09952 -5.78883 0.74094 0.165171 0.650943 41 38 42
-6.15709 2.1432 -5.72793 0.296564 -0.256206 0.920005 50 49 40
-6.20773 2.1712 -5.67337 0.466612 0.134549 0.874168 35 35 27
-6.67852 2.35529 -5.67022 0.461433 0.477784 0.747531 57 46 28
-6.35121 2.42029 -4.78114 0.826483 0.457582 -0.327938 186 161 115
-6.58765 2.5137 -4.97188 0.821489 -0.0424741 -0.56864 182 158 113
-8.72087 3.28967 -4.53294 0.376255 -0.504839 0.776897 193 167 121
-9.02178 3.43344 -4.47214 0.531748 -0.046556 0.845622 189 164 119
-7.74012 5.17167 3.70852 0.986936 0.134263 -0.0890564 91 79 51
-6.06151 2.17653 -5.7895 0.201112 -0.433635 0.878359 36 33 25
-9.07266 3.55302 -4.53634 0.606592 0.00345746 0.795006 186 160 117
-7.81191 5.39974 3.76397 0.970737 0.232234 -0.0611334 56 50 32
-3.22661 0.795806 -7.88047 -0.222685 -0.329314 0.917586 198 173 129
-6.89287 2.80579 -5.04258 0.802176 -0.0433305 -0.595513 188 162 117
-6.76186 2.76842 -4.9988 0.955765 0.0191202 -0.29351 191 165 118
-9.57672 4.04642 -4.21794 0.701135 0.109543 0.704564 166 145 103
-7.13306 3.03817 -5.0417 0.935767 0.290708 -0.199572 193 167 120
-7.65491 3.22402 -5.10101 0.819203 0.0639869 -0.569922 192 166 120
-9.05332 3.89671 -4.57722 0.551296 -0.0488479 0.832879 195 169 124
-9.31171 3.95887 -4.29037 0.565142 -0.0044017 0.824982 138 118 76
-9.54005 4.18488 -4.26218 0.685864 -0.010383 0.727656 155 133 91
-11.5221 5.4652 -1.9642 0.287786 -0.951567 0.108165 100 84 55
-3.7729 1.02337 -8.45864 -0.216122 -0.351599 0.910862 193 168 125
-3.93674 1.08181 -8.38233 -0.0989989 -0.369895 0.923784 193 169 125
-3.79112 1.07776 -8.30102 -0.103172 -0.361069 0.926814 192 169 125
-3.96015 1.07639 -8.31542 -0.185665 -0.249959 0.950289 191 168 123
-4.09473 1.14998 -8.40938 -0.0499451 -0.360068 0.931588 190 167 122
-4.091 1.15168 -8.41393 0.0179075 -0.442913 0.896386 193 170 124
-4.28866 1.51976 -7.06311 0.191637 0.144601 0.970755 168 149 106
-7.49758 3.26951 -5.17211 0.92121 -0.0573519 -0.384815 189 163 118
-3.82617 1.09037 -8.44581 -0.113528 -0.403489 0.907914 192 169 124
-3.83581 1.08992 -8.45913 -0.211843 -0.358848 0.909039 191 168 124
-3.82617 1.09037 -8.44581 -0.113528 -0.403489 0.907914 192 169 124
-3.74053 1.14073 -8.24826 -0.0999326 -0.426912 0.898754 191 167 123
-3.93332 1.14381 -8.31384 -0.0926895 -0.398391 0.91252 191 167 123
-3.86966 1.14554 -8.31908 -0.0949139 -0.440315 0.892813 191 168 123
-4.01259 1.21218 -8.32631 -0.0551939 -0.413631 0.90877 191 167 122
-3.88053 1.13849 -8.23586 -0.0918182 -0.303874 0.948277 191 167 123
-3.82335 1.20248 -8.18558 -0.0880308 -0.437029 0.895129 190 166 122
-3.97406 1.21012 -8.28614 -0.183719 -0.343123 0.921148 190 166 122
-10.2003 5.0352 -2.88056 0.257986 -0.349988 0.900528 79 70 46
-10.1631 5.12375 -2.91679 0.538194 -0.224465 0.812381 90 78 51
-3.80641 1.20937 -8.26142 -0.0994267 -0.428564 0.898024 190 166 122
-4.95303 1.96643 -7.18059 0.0500834 0.417241 0.907415 158 141 98
-9.64491 4.71729 -4.21924 0.287105 -0.636964 0.715436 191 166 120
-9.67114 4.64895 -4.08462 0.437137 -0.366776 0.82121 191 166 122
-4.93666 2.05881 -7.1582 0.132453 0.45159 0.88234 161 143 101
-4.94115 2.05947 -7.16434 0.139553 0.458906 0.877457 161 143 102
-9.49562 5.24219 -3.96839 0.812389 0.12274 0.570052 79 70 49
-9.00713 5.11672 -4.23147 0.297909 -0.599487 0.742877 61 55 37
-9.32506 5.27424 -4.09535 0.624862 0.0427684 0.779563 76 68 47
-4.82105 5.71865 4.8195 -0.148888 -0.770427 -0.619898 207 176 107
-6.91156 3.88296 -6.23992 0.133322 0.168777 0.976596 184 159 115
-7.89045 4.69215 -5.14369 0.45098 -0.137194 0.881927 197 169 124
-7.97019 4.77718 -5.07626 0.523057 -0.0976402 0.846686 197 171 125
-8.92988 5.52992 -4.54466 0.526483 -0.103682 0.84384 89 77 55
-4.61866 2.7449 -7.35043 0.239252 0.154045 0.95866 186 160 117
-4.70707 2.74312 -7.31938 0.294465 0.231931 0.927091 185 160 116
-7.67838 4.80452 -5.24221 0.360783 -0.257076 0.89652 196 170 122
-4.5865 2.77065 -7.27219 -0.0361896 0.216164 0.975686 186 161 117
-5.39742 3.44054 -6.56389 -0.0510498 -0.124845 0.990862 185 159 114
-5.94155 3.83911 -6.04019 0.0446922 -0.0094734 0.998956 198 171 124
-7.62006 4.91987 -5.23501 0.574919 -0.132887 0.807347 195 172 126
-7.95088 5.12697 -4.94997 0.380126 -0.329667 0.864189 58 51 34
-7.88356 5.17193 -5.0002 0.426572 -0.263699 0.865158 58 51 36
-8.16105 5.37292 -4.93077 0.64233 0.046119 0.765039 68 60 43
-8.82578 5.69179 -4.53595 0.232068 -0.372852 0.898402 94 79 52
-7.25934 4.79702 -5.59065 0.433803 -0.287328 0.853966 200 172 125
-7.2364 4.84206 -5.65304 0.459021 -0.328589 0.825427 200 172 124
-7.67701 5.17566 -5.18585 0.486515 -0.0981706 0.86814 53 48 31
-7.89759 5.33921 -5.09743 0.497513 -0.0821271 0.86356 61 54 39
-8.02918 5.36552 -4.94171 0.483989 -0.195583 0.852937 83 73 51
-8.29149 5.54746 -4.87754 0.591122 0.170643 0.788325 94 82 56
-6.44507 3.99184 -7.40518 0.0752351 0.235488 0.968961 191 165 117
-6.97921 4.75612 -5.79706 0.388106 -0.124918 0.91311 195 169 122
-7.08085 4.87767 -5.77369 0.454062 -0.307669 0.836162 202 175 126
-7.15547 4.86372 -5.71631 0.407569 -0.316548 0.856554 202 174 126
-7.1569 4.93552 -5.51622 0.510807 -0.152448 0.846071 195 171 128
-7.51033 5.21832 -5.27762 0.475757 -0.0998808 0.873888 53 48 33
-7.68517 5.35653 -5.21704 0.553543 0.0303752 0.832266 71 63 44
-7.70964 5.29048 -5.1363 0.477496 -0.106354 0.872173 64 58 39
-7.97866 5.42465 -5.01755 0.566351 -0.0879785 0.819455 85 76 53
-6.93287 4.87555 -5.82711 0.476591 -0.289992 0.829919 197 169 122
-7.06597 4.8781 -5.77283 0.471152 -0.305355 0.827511 202 174 126
-7.04338 5.0598 -5.57937 0.429682 -0.155552 0.889481 95 83 52
-7.4308 5.26907 -5.31342 0.433139 -0.151071 0.888577 58 52 35
-6.81104 4.87629 -5.88254 0.479169 -0.278133 0.83249 201 175 127
-6.77472 4.96807 -5.88005 0.505017 -0.372355 0.778659 199 174 127
-6.88681 5.09483 -5.70097 0.475296 -0.187904 0.859527 86 73 44
-6.98539 5.18319 -5.59364 0.422976 -0.199177 0.88398 55 49 31
-7.13865 5.20186 -5.53732 0.465688 -0.131171 0.875173 51 47 30
-7.28373 5.34143 -5.43988 0.441841 -0.255715 0.859876 67 60 40
-7.29229 5.34448 -5.45635 0.400991 -0.180512 0.898121 63 56 37
-6.30995 4.33105 -7.68459 0.244165 -0.316469 0.916641 187 162 117
-6.62852 4.46438 -7.75573 0.392531 -0.20423 0.896777 185 159 116
-7.06502 4.69886 -7.90847 0.0809086 -0.42299 0.902515 189 161 117
-6.70026 5.05111 -5.87699 0.507283 -0.280394 0.814888 176 156 116
-6.81081 5.19304 -5.71191 0.538165 -0.177049 0.824034 55 50 32
-6.84741 5.20881 -5.70524 0.504422 -0.325418 0.799789 55 50 33
-6.91573 5.18719 -5.6444 0.461508 -0.145717 0.875087 54 49 31
-7.14386 5.36691 -5.56325 0.548436 0.0607499 0.833983 65 58 39
-7.12248 5.40496 -5.49755 0.622025 -0.533114 0.573476 87 76 52
-7.26068 5.44785 -5.43599 0.504064 -0.517703 0.691306 86 76 50
-6.36162 4.49738 -7.74101 0.314646 -0.265401 0.911351 190 163 119
-6.38131 4.37806 -7.75486 0.422149 -0.179437 0.888591 189 163 118
-6.39629 4.43832 -7.77855 0.332707 -0.251545 0.908862 189 163 118
-6.5795 5.16623 -5.88636 0.448476 -0.181981 0.875072 55 48 28
-6.6576 5.14556 -5.87442 0.446518 -0.296931 0.84407 71 61 33
-6.65021 5.14912 -5.87744 0.446466 -0.294674 0.844887 69 59 32
-6.71064 5.22285 -5.77049 0.504696 -0.165702 0.847245 54 51 34
-6.67182 5.22517 -5.81701 0.473112 -0.320389 0.82068 53 50 33
-6.66496 5.14981 -5.82972 0.419505 -0.230668 0.877957 57 50 28
-6.76307 5.21903 -5.76066 0.45486 -0.317235 0.832145 54 50 33
-6.89272 5.30423 -5.6486 0.431914 -0.139782 0.891017 62 56 38
-6.88274 5.2826 -5.65435 0.392204 -0.184199 0.901247 58 54 37
-6.53652 5.28474 -5.90025 0.399404 -0.179381 0.899055 55 50 34
-6.62541 5.26572 -5.82955 0.419214 -0.272119 0.866147 55 51 33
-6.72577 5.33184 -5.76417 0.477848 -0.169257 0.861983 67 61 42
-6.76728 5.40223 -5.78294 0.539539 -0.00751345 0.841927 75 67 47
1.93767 2.7509 3.16781 0.0655606 -0.972413 -0.223861 95 78 44
-6.63401 5.40979 -5.90056 0.574642 0.092057 0.813211 71 64 45
-6.83128 5.56849 -5.83956 0.564082 0.0951768 0.820215 87 76 51
-6.57725 5.51354 -6.0066 0.532875 0.112016 0.838747 84 74 52
-2.51758 6.02541 2.54469 0.353761 -0.935243 0.0131426 138 121 60
-2.21887 5.52588 1.32722 0.662346 -0.712166 -0.23263 188 164 104
-2.15045 5.54065 1.28343 0.685517 -0.668277 -0.288917 188 163 103
-2.42222 6.10107 2.52436 0.248509 -0.966665 0.0616677 131 116 53
-2.03619 5.62883 1.71625 0.787151 -0.598381 -0.149445 134 115 54
-1.96381 5.63647 1.29753 0.346366 -0.919641 0.185176 162 138 79
2.00135 2.75276 1.94171 0.870566 -0.489528 -0.0497586 56 49 37
2.00578 2.78515 1.6813 0.654917 -0.441609 -0.613241 25 19 11
2.02062 2.79587 1.70753 0.561426 -0.539968 -0.627085 23 18 12
2.05336 2.76393 1.77413 0.759996 -0.187738 -0.622223 59 54 45
2.03089 2.83507 1.74879 0.853578 -0.0886298 -0.51337 22 19 13
2.05907 2.79861 1.78855 0.838045 -0.183075 -0.513969 52 48 41
2.0742 2.82672 1.81836 0.759387 -0.190547 -0.622112 35 32 25
2.07127 2.83197 1.82086 0.785753 -0.191402 -0.588182 35 32 25
1.06574 3.5911 1.47829 0.254579 -0.954158 -0.157394 73 55 23
1.1799 3.53023 1.43909 0.0597398 -0.951933 -0.300424 86 66 28
1.79701 3.13157 1.64872 -0.124762 -0.86718 -0.482113 24 20 13
2.22644 2.86575 1.94126 0.737795 -0.274677 -0.616612 26 24 17
1.12653 5.09466 6.17228 0.29408 -0.410481 -0.863147 124 99 44
-2.34428 3.39355 -9.3814 0.249106 0.00809832 0.968442 82 55 18
-1.50309 6.03405 1.55463 -0.0990681 -0.891729 -0.441594 190 164 100
1.64719 3.23416 1.32476 0.0306371 -0.883713 -0.467025 84 65 28
1.89116 3.08043 1.6023 0.186138 -0.840135 -0.509436 31 24 16
1.89149 3.1146 1.63004 0.157092 -0.77617 -0.610641 27 21 13
1.89995 3.11237 1.62515 0.0684907 -0.736613 -0.672838 37 27 15
2.16702 2.93998 1.91369 0.682869 -0.348286 -0.642173 22 21 16
-2.29943 3.46262 -9.38713 0.15696 0.152818 0.97571 102 68 18
2.14398 2.9963 1.90849 0.860819 -0.309045 -0.404329 15 13 7
2.19989 2.98957 1.93031 0.966167 -0.106262 -0.235009 10 9 6
2.2011 2.97198 1.93664 0.985408 -0.0130448 -0.169706 17 15 11
0.738565 3.86699 0.480522 0.545957 -0.320886 -0.773927 141 115 69
1.73723 3.27983 1.28113 0.0858043 -0.850421 -0.519058 87 69 32
1.98963 3.24495 1.95453 0.502027 -0.543131 -0.673036 16 13 10
2.20031 3.0567 1.93754 0.788478 -0.338025 -0.513851 15 13 9
-0.335271 5.7905 2.75456 0.845276 -0.322986 -0.425661 76 65 32
-0.30186 5.79139 2.83771 0.835211 -0.413671 -0.362352 72 62 31
0.89263 3.99263 0.494857 0.555261 -0.30721 -0.772857 173 147 94
2.39855 3.0625 2.27721 0.710534 -0.526514 -0.466824 17 15 11
-0.490171 5.93903 2.01476 0.108156 -0.986541 0.122631 137 124 57
1.37789 3.67629 0.687577 0.53068 -0.32211 -0.78398 127 108 57
-0.143427 6.13603 3.0488 0.783753 0.118809 -0.609603 47 40 19
-0.679131 5.6679 -0.697738 0.133587 -0.985504 -0.104576 212 187 124
2.51395 3.17194 2.23766 0.386207 -0.662959 -0.64135 69 51 23
-0.598735 5.65905 -0.766046 0.00436264 -0.963685 -0.267007 212 189 126
1.68706 3.59872 0.697929 0.948878 0.193016 -0.249751 115 97 47
1.77145 3.60984 0.791487 0.883167 -0.410448 -0.227044 180 155 96
1.76721 3.64058 0.806147 0.901079 -0.430754 0.0500868 177 154 95
1.57779 3.8003 0.580968 0.62244 -0.217556 -0.751823 144 123 73
2.71583 3.09293 2.21343 0.707948 -0.67328 -0.213316 96 73 31
1.8131 3.70433 0.786808 0.842143 -0.539042 -0.0150995 181 156 97
1.72156 3.89616 0.96565 0.893923 -0.430503 0.124773 43 40 10
1.73215 3.92828 0.908607 0.92112 -0.368399 0.125781 83 69 29
1.87597 3.82024 0.798463 0.854081 -0.487583 0.18113 173 150 90
1.79524 3.91589 0.881988 0.994885 0.0427783 0.0915085 107 90 43
1.78589 4.03882 0.908761 0.946527 -0.210179 0.244766 84 69 31
1.77506 4.08084 0.967584 0.97906 -0.15308 -0.134193 54 44 15
2.76678 3.2467 2.17889 0.93245 -0.0304976 -0.36001 38 26 10
2.76622 3.24153 2.17715 0.890447 -0.130196 -0.436065 37 25 9
1.91442 3.87701 0.828588 0.666972 -0.341877 0.662018 171 148 91
1.53709 4.5935 0.67656 0.985086 0.0276451 0.169827 130 111 57
1.52012 4.66873 0.731646 0.956985 -0.166511 -0.237599 95 80 38
1.54324 4.69006 0.67175 0.997421 0.0535437 -0.0478042 122 104 52
1.55451 4.73603 0.751445 0.986553 -0.149896 -0.0651434 84 70 32
-15.6849 -0.761658 0.417352 0.742711 0.143186 0.654124 174 156 120
-15.5757 -0.600695 0.236696 0.76523 0.140318 0.628279 142 129 89
-15.9425 -0.477014 0.494802 0.738019 0.0342904 0.673908 162 148 112
-15.796 -0.54524 -0.0234842 0.944945 0.0636709 -0.320975 135 126 84
-16.1385 -0.323799 0.684752 0.742767 -0.0265724 0.669023 67 60 37
-17.0926 -0.265934 1.51854 0.856927 0.353589 0.375034 118 83 31
-15.713 -0.337039 0.275707 0.783812 0.0250977 0.620491 156 144 104
-16.471 -0.169482 0.91692 0.747639 -0.0297721 0.663438 62 59 46
-17.1297 -0.0363212 1.52308 0.914691 0.250694 0.317006 116 83 32
-11.6439 -0.66439 -2.35898 0.826138 0.146519 0.544085 184 163 126
-11.7412 -0.589957 -2.21146 0.861989 0.119804 0.492567 137 117 92
-11.7383 -0.585013 -2.21526 0.872654 0.131463 0.470311 137 117 92
-15.9755 -0.18226 0.494133 0.737574 -0.0470659 0.673624 102 93 73
-15.7452 -0.0465762 0.291111 0.728511 0.273706 0.627978 153 139 105
-16.2488 -0.00793005 0.709168 0.716098 0.434072 0.546612 66 58 47
-17.0702 0.106138 1.32755 0.753336 0.155091 0.639087 105 82 46
-17.1842 0.201903 1.52571 0.884947 0.258074 0.387642 115 83 30
-11.6766 -0.47927 -2.35811 0.887718 0.165993 0.429422 184 161 126
-15.8868 0.109995 0.472164 0.800253 0.011225 0.599558 130 115 87
-16.6916 0.0852885 0.917197 0.758664 0.429089 0.490216 96 89 71
-16.9271 0.169534 1.12728 0.734038 0.31186 0.603267 115 102 77
-11.779 -0.400018 -2.21787 0.84745 0.101763 0.52103 140 120 94
-16.3975 0.25888 0.709288 0.707082 0.451076 0.544578 159 144 112
-17.1984 0.455286 1.54623 0.808213 0.416537 0.416279 113 80 28
-16.91 0.346237 0.917606 0.800229 0.323131 0.505194 154 139 105
-11.6812 -0.369776 -2.53368 0.986755 0.157055 0.0406007 197 173 131
-11.7109 -0.287821 -2.35916 0.812805 0.135446 0.566571 181 159 122
-11.8037 -0.203683 -2.22447 0.895494 0.121873 0.428063 142 124 97
-17.0006 0.555781 1.11887 0.784988 0.100943 0.611232 123 109 80
-17.2052 0.676878 1.33232 0.757608 0.0577149 0.650153 100 78 44
-17.3035 0.716048 1.54549 0.837363 0.324168 0.440158 112 80 29
-15.7165 0.417516 0.0190777 0.645119 0.723264 0.246394 146 129 95
-15.7354 0.491852 0.224347 0.754473 0.308269 0.579431 149 132 95
-17.1379 0.607893 0.918159 0.858688 0.245301 -0.449981 152 137 104
-17.044 0.695421 1.1123 0.749751 0.0865915 0.65603 126 114 86
-11.742 -0.177785 -2.54654 0.971584 0.158119 -0.176135 197 173 131
-11.7366 -0.193364 -2.53196 0.976788 0.152822 -0.150105 197 173 131
-11.7429 -0.108029 -2.35948 0.967651 0.168182 0.188058 180 158 120
-16.9322 0.749305 0.722172 0.670531 0.644123 0.368096 155 139 103
-16.9576 0.838877 0.917255 0.8691 0.26292 0.418972 152 135 103
-17.0473 0.933718 1.10155 0.852316 0.214041 0.477225 127 113 87
-17.2677 0.941942 1.50364 0.924827 0.327143 0.194096 108 79 30
-11.8081 -0.0165329 -2.21543 0.949395 0.0853623 0.302262 145 129 100
-11.8162 -0.0262134 -2.20781 0.945851 0.100101 0.308781 144 128 101
-17.1348 1.07447 1.26778 0.895122 0.288257 0.340095 77 61 35
-17.2585 1.16634 1.47158 0.83575 0.368195 0.407375 104 77 35
-8.2951 2.85342 4.17174 0.992874 0.108015 0.0503357 202 181 132
-11.7413 -0.0153071 -2.51605 0.980001 0.192738 -0.0494957 197 173 130
-11.7359 -0.00508958 -2.52675 0.983045 0.183254 0.0063563 197 173 130
-16.2645 0.548718 -0.541079 0.554678 0.383823 -0.738249 148 134 97
-16.0304 0.72318 -0.0129774 0.951451 0.302105 0.0589374 144 128 94
-16.9739 1.07848 0.901827 0.868731 0.23085 0.438194 155 139 104
-17.0735 1.17326 1.08891 0.911477 0.212401 0.352271 137 124 95
-17.0686 1.20703 1.06884 0.906607 0.202811 0.370043 144 130 100
-17.0712 1.16395 1.08901 0.910079 0.211462 0.356426 138 124 95
-17.171 1.27326 1.28282 0.87383 0.268276 0.405522 63 48 22
-17.1777 1.26455 1.28542 0.85546 0.280233 0.435497 64 49 23
-17.3569 1.37548 1.50839 0.759137 0.336024 0.557494 106 76 33
-8.3236 2.84871 3.87648 0.946763 0.174232 -0.270709 134 117 88
-8.31584 2.93064 4.00408 0.944679 0.0516695 -0.323901 144 128 92
-8.35989 2.91773 4.04209 0.691384 -0.00712691 -0.722452 137 121 85
-8.277 2.98371 4.14356 0.884209 0.0186383 -0.466719 200 180 130
-8.17982 2.95885 4.25888 0.427931 0.686838 -0.587476 218 194 136
-8.08337 3.05376 4.31253 0.404939 0.67991 -0.611349 219 197 137
-11.7688 0.0768307 -2.35697 0.908336 0.155444 0.388281 177 157 118
-11.8474 0.158604 -2.20761 0.96031 0.0312338 0.27718 147 131 105
-16.209 0.559446 -0.810361 0.790602 0.46635 0.396819 147 132 93
-16.1632 0.739549 -0.302644 0.640904 0.321703 -0.696958 114 100 68
-16.0978 0.827957 -0.160436 0.987522 0.0864111 0.131661 106 91 61
-16.0574 0.826691 -0.151143 0.888918 0.417668 0.188091 110 96 65
-16.081 0.948821 0.0184168 0.977596 0.16563 -0.129897 146 131 99
-16.0797 0.946782 0.0285017 0.932921 0.359667 -0.0172344 146 131 99
-17.1443 1.30884 1.25451 0.914879 0.29318 0.277564 56 42 17
-17.1457 1.30516 1.25365 0.913375 0.288151 0.287603 57 43 18
-8.12887 2.84611 3.53205 0.954197 0.208935 -0.214135 158 141 109
-8.28076 3.00911 4.1265 0.937645 0.0705643 -0.340358 193 174 126
-8.20506 3.08626 4.22088 0.6555 0.307119 -0.689925 211 187 132
-16.2753 0.832445 -0.434092 0.860622 0.193227 -0.471161 103 89 56
-16.2437 0.923426 -0.282488 0.946017 0.00139457 -0.324113 88 74 45
-16.1586 1.01073 -0.144519 0.838682 0.349841 -0.417401 107 91 64
