ply
format ascii 1.0
element vertex 748
property float x
property float y
property float z
property float nx
property float ny
property float nz
property uchar diffuse_red
property uchar diffuse_green
property uchar diffuse_blue
end_header
-8.3974 2.48182 4.24475 0.876018 0.110222 0.469514 192 161 112
-8.3208 2.49819 4.17171 0.826064 -0.151106 0.542941 195 164 115
-8.43256 2.53629 4.75884 0.524646 -0.254021 0.812539 178 149 97
-8.56184 2.53339 4.84071 0.467689 -0.264828 0.843287 176 147 96
-8.79283 2.70939 4.88075 0.359325 -0.332446 0.871989 182 152 103
-8.79477 2.70982 4.88039 0.36341 -0.326484 0.872549 182 152 103
-9.6627 2.93617 5.08165 0.867189 0.384576 0.316361 179 147 97
-9.98488 2.97787 5.2133 0.931374 -0.301217 0.204476 162 130 78
-10.0082 2.94534 5.16366 0.860396 -0.303747 0.409215 168 138 86
-9.95552 3.00835 5.25908 0.875929 -0.314085 0.366197 160 127 76
-9.96466 3.01359 5.26384 0.964669 -0.210793 -0.158052 159 125 74
-9.97915 2.93733 5.25943 0.909391 -0.364744 -0.199924 151 118 64
-9.97945 2.97297 5.31793 0.94682 -0.321699 0.00648656 140 102 42
-9.97121 2.98051 5.32769 0.981767 -0.175905 -0.0720541 136 98 41
-8.72966 2.65729 7.26187 0.775195 -0.631541 0.0151218 126 85 23
-8.00993 2.54245 8.287 0.368122 -0.463831 -0.80582 86 50 17
-8.50882 2.71966 9.50983 0.945648 -0.285852 0.155042 80 48 17
-8.55372 2.74118 9.79897 0.959476 -0.268373 0.0859208 91 58 22
-8.55934 2.73675 9.80028 0.975391 -0.212205 0.0598524 93 60 24
-8.5516 2.74311 9.79898 0.910712 -0.403751 0.0871155 90 57 22
-8.58171 2.74119 9.8047 0.911911 -0.402935 0.077857 93 60 24
-8.59107 2.74469 9.83179 0.816888 -0.576137 -0.0275738 93 61 24
-3.9558 1.10677 -8.046 -0.276613 -0.64049 0.71642 197 172 126
-5.07486 1.48698 -6.83951 0.549801 -0.0189476 0.835081 188 165 119
-5.23771 1.47984 -6.41372 0.508334 0.0467714 0.859889 130 117 82
-7.96728 2.35698 -4.92847 0.329597 0.545244 0.770762 134 116 73
-8.32336 2.67074 4.13818 0.865304 0.00819448 0.50118 194 163 114
-8.30313 2.62012 4.16374 0.88636 -0.117223 0.447913 194 163 114
-8.37362 2.64287 4.20787 0.835542 -0.492928 0.242675 194 163 113
-8.40569 2.68281 4.25521 0.847549 -0.0746879 0.525435 192 160 112
-8.41328 2.62166 4.25496 0.86004 -0.0119 0.510087 191 160 111
-8.41254 2.61727 4.25577 0.856412 -0.0306807 0.51538 191 160 111
-9.57914 3.01305 4.79948 0.881413 0.182862 0.435514 179 148 97
-9.7207 2.97329 4.96907 0.877594 0.110467 0.466504 181 149 101
-9.85235 3.09309 5.07754 0.992961 0.117993 0.01034 176 143 92
-9.86267 3.08219 5.21699 0.86293 -0.0388523 0.503827 170 137 88
-9.8593 3.07249 5.21272 0.863198 -0.0355711 0.50361 171 138 89
-9.96802 3.04956 5.31448 0.92725 -0.228329 -0.296772 141 102 42
-9.95648 3.05401 5.32118 0.980416 -0.0180438 0.196112 136 97 41
-9.96791 3.09542 5.40347 0.980157 0.0578862 0.189582 127 86 23
-9.95651 3.04781 5.32769 0.984094 0.0305919 0.174994 133 94 37
-9.67798 2.98506 5.54281 0.81348 0.0051007 -0.581571 154 109 32
-8.66605 2.77735 6.99232 0.794219 0.012265 -0.607508 140 92 20
-8.32696 2.66882 7.44637 0.887902 -0.356751 0.290446 133 86 16
-8.24103 2.68353 7.64615 0.902963 -0.42829 -0.0350146 139 94 18
-8.49161 2.74807 7.92551 0.932876 -0.288208 0.21605 136 90 17
-7.86346 2.56302 8.38236 0.813092 -0.426066 -0.396673 66 35 12
-7.79572 2.59805 8.49751 0.779923 -0.494317 -0.383888 100 79 46
-8.5312 2.80244 9.66269 0.746116 0.627547 -0.222476 82 51 20
-8.51934 2.79574 9.93031 0.474141 -0.237901 -0.847699 78 46 14
-2.20152 0.767914 -11.8525 0.462234 -0.789383 0.403997 143 101 21
-4.7384 1.46983 -6.64828 -0.453571 0.154259 0.877768 197 172 124
-4.7384 1.46983 -6.64828 -0.453571 0.154259 0.877768 197 172 124
-6.20232 1.98089 -5.54985 -0.139738 -0.0243308 0.98989 29 27 28
-6.43643 2.08548 -5.41046 0.118616 -0.23225 0.965396 48 47 42
-8.33441 2.72722 4.17828 0.845999 -0.0739962 0.528026 194 162 113
-9.45463 3.11024 4.73109 0.865471 0.0306565 0.500021 181 150 99
-9.67644 3.09397 4.92555 0.868778 0.0365122 0.493855 182 151 101
-9.75511 3.16788 5.04398 0.875345 0.0557904 0.480269 180 149 99
-9.94114 3.24689 5.33064 0.926048 0.126551 0.355557 124 87 30
-9.67922 3.1071 5.54343 0.814122 0.00198939 -0.580691 156 110 32
-8.78378 2.9109 6.82228 0.847412 0.120207 -0.517149 144 97 21
-8.72847 2.95334 6.90692 0.809138 0.0628624 -0.584246 139 91 18
-8.66202 2.8969 6.99406 0.757857 -0.0389694 -0.651256 140 92 20
-8.32666 2.85437 7.50074 0.984611 0.0354383 -0.171129 142 93 21
-8.31997 2.85301 7.50207 0.982683 -0.0225828 -0.183915 142 93 21
-8.20588 2.82736 7.69531 0.810691 0.515266 -0.277997 148 100 20
-7.81333 2.68459 8.4083 0.925766 -0.168566 -0.338442 91 62 30
-7.71672 2.70473 8.49461 0.738062 -0.398165 -0.544728 132 114 70
-7.81713 2.72949 8.50811 0.978563 -0.145034 0.146219 132 110 71
-7.75634 2.63568 8.5964 0.88349 -0.305418 -0.355199 108 88 50
-7.75886 2.6335 8.59939 0.884674 -0.30186 -0.355292 107 87 49
-7.78271 2.69976 8.66352 0.923355 0.377514 -0.0699922 120 101 59
-1.96342 0.83554 -12.2582 0.588008 -0.708227 0.390718 137 96 19
-4.69213 1.63244 -6.53654 -0.336782 0.311328 0.888624 189 164 119
-4.76438 1.63964 -6.62157 -0.416084 0.251078 0.873976 195 169 123
-6.35873 2.10714 -5.4473 0.54729 -0.163138 0.82089 39 34 27
-7.45867 2.41907 -5.2748 0.852711 0.28996 0.434519 141 121 77
-13.9874 4.45329 -2.44438 0.00444498 -0.30354 0.952808 161 143 116
-9.43815 3.19852 4.6458 0.849565 -0.0373047 0.526164 184 152 102
-9.42635 3.24082 4.71397 0.842197 -0.063235 0.535449 182 150 99
-9.43594 3.21897 4.71408 0.864765 0.0182248 0.501847 182 150 100
-9.7523 3.23958 4.95764 0.867493 0.0238972 0.496874 181 149 100
-9.83998 3.37739 5.18508 0.869083 0.0118315 0.494524 170 138 87
-8.84907 3.09881 6.73642 0.795389 0.0934897 -0.598846 146 98 21
-8.8503 3.09779 6.73195 0.801591 0.0950074 -0.590276 146 99 21
-8.78763 3.03477 6.82003 0.877412 0.0444597 -0.477674 146 99 23
-8.47606 2.99729 7.28835 0.898556 -0.00946251 -0.438757 135 86 16
-8.30291 2.92588 7.37177 0.970661 0.125053 0.205376 137 89 17
-8.24532 2.91459 7.82566 0.96323 -0.203618 0.175292 141 92 20
-7.82616 2.79272 8.39834 0.993754 0.0129777 -0.110832 82 51 13
-7.60623 2.72497 8.58173 0.880498 -0.330316 -0.340021 119 101 59
-7.70905 2.7719 8.62307 0.995258 0.0440082 0.0867497 114 97 53
-6.95504 2.48859 -5.49781 0.191168 0.69243 0.695698 147 127 79
-13.6172 4.44791 -2.12951 0.0475317 -0.362263 0.930863 164 144 117
-9.38405 3.3165 4.62511 0.855839 0.012481 0.517092 184 152 101
-9.38545 3.32272 4.62227 0.857551 0.0213753 0.513954 184 152 102
-9.43919 3.31805 4.76038 0.854595 -0.0535271 0.516529 181 149 99
-9.42128 3.26105 4.78014 0.880314 -0.0725407 0.468812 181 149 99
-9.6756 3.45374 4.97776 0.894732 0.142758 0.423172 191 157 108
-9.82354 3.43519 5.12484 0.85864 -0.0295397 0.511727 170 140 90
-9.80357 3.39283 5.06398 0.900689 0.0641568 0.429701 173 142 93
-9.84858 3.47931 5.19059 0.87176 -0.0140872 0.489731 168 137 86
-9.8983 3.43341 5.26878 0.882182 0.0481787 0.468437 146 111 60
-9.93081 3.47916 5.4257 0.98385 0.00597444 -0.178895 142 99 31
-9.43473 3.38156 5.80428 0.77297 -0.154411 -0.615365 144 96 19
-8.85658 3.22056 6.74104 0.790232 0.15406 -0.593127 147 100 23
-8.78978 3.15847 6.82464 0.832169 -0.0199118 -0.554165 146 100 23
-8.73862 3.09026 6.91694 0.958009 -0.0122725 -0.286476 139 91 18
-8.72879 3.16409 7.04953 0.999726 0.023416 0.000216506 139 91 18
-8.53551 3.03833 7.19293 0.897374 0.0244597 -0.440593 143 95 19
-8.52712 3.05458 7.18952 0.848819 0.0276084 -0.527963 138 90 17
-8.33949 2.99278 7.50816 0.988398 0.122088 -0.0903557 142 93 22
-8.36161 3.07026 7.6063 0.972712 0.0764894 0.219047 146 97 22
-8.23046 2.97933 7.67778 0.901749 0.108679 -0.418375 141 93 19
-8.23043 2.97155 7.67543 0.87686 -0.392648 0.277388 142 93 19
-7.81545 2.85979 8.28052 0.991456 0.0907058 0.0937405 132 91 26
-7.83417 2.92676 8.39773 0.99096 0.0960922 0.0936226 82 49 13
-7.79481 2.85223 8.50631 0.997113 0.0552522 -0.0520936 91 70 28
-7.75446 2.84111 8.50965 0.978138 0.137681 -0.155853 99 78 36
-7.62053 2.85767 8.5913 0.875756 -0.338061 -0.344626 102 81 37
-1.74885 0.964958 -10.672 0.698923 -0.524338 0.486392 153 113 24
-8.91515 3.21274 -4.48477 0.0952522 0.082945 0.991992 181 154 112
-9.45844 3.33424 -4.50829 0.802064 0.150055 0.57808 195 168 123
-9.38646 3.30638 -4.34563 0.916295 -0.320783 0.239793 196 169 124
-9.32227 3.39009 4.5598 0.918446 -0.0165157 0.3952 185 153 103
-9.35947 3.46728 4.65313 0.829638 -0.112263 0.546898 179 148 100
-9.36252 3.38117 4.75538 0.873754 0.0737975 0.480736 178 147 98
-9.81441 3.52773 5.03918 0.896694 0.0469641 0.440153 175 142 92
-9.83971 3.62403 5.18649 0.883361 -0.00778189 0.468629 173 139 89
-9.14522 3.36417 6.28374 0.805572 0.0150469 -0.592307 149 101 25
-9.2246 3.42379 6.1929 0.796446 0.00711825 -0.604668 143 95 18
-9.06817 3.2913 6.37692 0.63911 -0.0990533 -0.762711 138 91 17
-8.79047 3.28128 6.8236 0.809592 0.0120183 -0.586869 147 100 24
-8.73707 3.21886 6.92175 0.925462 -0.0517616 -0.375288 135 88 15
-8.54033 3.17865 7.18637 0.8327 0.00912496 -0.55365 137 89 17
-8.47609 3.12022 7.28464 0.825456 0.0907405 -0.557125 134 86 16
-8.30813 3.06762 7.37188 0.967707 0.0168951 0.251511 138 90 16
-8.3442 3.14156 7.48972 0.975066 -0.0430664 0.217695 136 88 16
-8.25112 3.05405 7.82845 0.957397 -0.127031 0.259335 140 91 17
-7.83547 2.93564 8.16833 0.985037 0.155798 0.0736831 144 96 22
-7.81847 2.99393 8.28033 0.993293 0.0330265 0.110808 134 90 28
-7.83948 2.99281 8.51628 0.982977 0.169738 0.0703288 114 88 50
-7.65146 2.88106 8.61739 0.557011 -0.303964 -0.77288 103 83 38
-7.28352 2.83175 8.65292 0.923794 0.156845 0.349292 103 79 35
-7.94582 2.97493 9.32077 0.910498 -0.388866 0.140625 116 98 56
-5.83646 2.45406 -6.02277 0.76038 0.510933 0.400961 133 114 69
-6.22475 2.60731 -6.15458 0.558715 0.315 0.767211 158 137 89
-6.65182 2.63863 -6.08295 0.514879 0.407131 0.754416 157 136 89
-13.1362 4.78489 -2.1125 0.372434 -0.0107049 0.927997 163 143 113
-13.5004 4.96053 -2.02911 0.38169 -0.0249011 0.923955 167 146 115
-13.6889 5.0157 -1.58929 0.112542 -0.487151 0.866036 174 153 120
-9.34105 3.52301 4.55236 0.922307 -0.229176 0.311174 175 146 99
-9.32839 3.50957 4.58525 0.816233 -0.164271 0.553876 174 146 99
-9.32289 3.60053 4.64955 0.824087 -0.136627 0.54974 185 153 103
-9.36487 3.62401 4.67363 0.817185 -0.158735 0.554087 184 152 102
-9.34756 3.61585 4.71391 0.80918 -0.26471 0.524553 183 150 101
-9.35616 3.53949 4.77707 0.838161 -0.238648 0.490442 183 151 101
-9.70149 3.71233 4.85103 0.838771 -0.102161 0.534815 181 148 99
-9.82848 3.71629 5.10038 0.868944 -0.0137311 0.49472 178 146 95
-9.83915 3.77311 5.18809 0.882602 -0.0209959 0.469652 171 138 88
-9.94233 3.77406 5.40548 0.996768 0.0235428 -0.0768118 137 94 27
-9.28067 3.49386 6.09439 0.832151 -0.0365496 -0.553343 136 89 16
-9.22897 3.55888 6.19324 0.796478 0.0141462 -0.604502 142 94 17
-9.15687 3.49427 6.27928 0.756081 0.0514078 -0.652456 150 102 25
-9.07224 3.43364 6.36614 0.716093 -0.0664162 -0.694838 139 92 18
-9.07613 3.41844 6.38502 0.855012 -0.0200729 -0.518219 140 92 19
-9.07128 3.43444 6.3666 0.712691 -0.0653352 -0.698429 139 92 18
-8.79251 3.4131 6.82015 0.852191 0.0341934 -0.522112 147 100 23
-8.73837 3.34529 6.9186 0.890066 0.0326288 -0.454663 136 88 14
-8.56983 3.35561 7.16039 0.848228 0.135585 -0.511982 144 95 22
-8.50504 3.29006 7.25932 0.870656 0.0903147 -0.483531 140 92 19
-8.36844 3.21236 7.60711 0.963978 -0.0161251 0.265491 146 98 23
-7.84578 3.07252 8.17158 0.985522 0.0235428 0.167906 142 96 21
-7.84513 3.07202 8.16895 0.97912 0.196357 0.0526037 144 96 22
-7.84255 3.06336 8.39824 0.991683 0.0984535 0.0829011 86 52 16
-7.8393 3.06107 8.39658 0.959938 0.127119 -0.249718 86 51 14
-7.84174 3.06459 8.39946 0.992236 0.0899183 0.0859163 87 53 16
-7.8393 3.06361 8.39583 0.961001 0.122597 -0.247884 86 50 13
-7.75994 3.07063 8.4642 0.769278 0.0258227 -0.638393 117 94 53
-8.07816 3.1623 9.45496 0.829619 0.0365011 -0.557135 106 84 41
-8.03686 3.10306 9.5648 0.758714 0.594641 -0.265999 106 86 41
-1.70409 1.18796 -9.98169 0.44701 -0.709477 0.544816 148 108 23
-5.79854 2.56465 -6.29139 0.47796 -0.0711583 0.875494 158 135 88
-6.01583 2.56577 -6.12102 0.782298 -0.17048 0.599122 161 140 92
-8.00059 3.23599 -5.51209 0.774046 -0.480893 0.411818 179 155 110
-7.90208 3.20212 -4.14753 0.971885 0.183131 0.147998 196 169 123
-9.26727 3.73095 4.69414 0.772285 -0.402455 0.491534 183 151 101
-9.56289 3.82068 4.8717 0.820361 -0.335348 0.463196 184 152 103
-9.76863 3.78746 4.97064 0.896832 0.0351402 0.440974 181 149 98
-9.85359 3.87533 5.09451 0.860326 -0.0503936 0.507247 178 146 95
-9.92363 3.87272 5.34102 0.984095 0.113145 0.136952 124 84 24
-9.38991 3.70117 6.02163 0.743603 0.296141 -0.599463 144 97 20
-9.26733 3.60912 6.08364 0.839378 -0.225126 -0.494736 138 93 20
-9.2307 3.68719 6.19284 0.767879 -0.104055 -0.632088 140 93 16
-9.16139 3.62374 6.2809 0.785281 0.0591807 -0.616305 151 104 27
-9.15759 3.61543 6.28452 0.734664 0.0906912 -0.672342 151 104 27
-9.07987 3.56066 6.36539 0.751006 0.0605217 -0.657515 141 94 19
-9.08232 3.54492 6.38446 0.860792 0.047058 -0.506778 141 94 19
-8.80149 3.545 6.81946 0.857699 0.0506209 -0.511655 144 97 21
-8.6948 3.42219 7.05658 0.982907 -0.00514719 -0.18403 143 95 22
-8.69849 3.42287 7.03853 0.98381 0.0135048 -0.178708 142 93 20
-8.50974 3.41684 7.25153 0.840715 -0.0190881 -0.541141 143 95 22
-8.46195 3.36025 7.36568 0.9425 0.101858 -0.318307 140 92 19
-8.37654 3.30269 7.46753 0.833578 0.0159426 -0.552172 132 85 13
-8.32424 3.37225 7.56914 0.897464 0.0106663 -0.44096 145 96 24
-7.87034 3.14348 8.05932 0.925187 -0.328856 -0.189427 140 93 18
-7.83095 3.20336 8.16963 0.986942 0.0265878 -0.158865 143 96 23
-7.82366 3.13031 8.28187 0.989656 -0.0494282 0.13468 135 90 27
-7.84509 3.20081 8.39845 0.993687 0.0611854 0.0940327 89 55 17
-7.84404 3.12913 8.51594 0.994438 0.0493111 0.0930683 120 95 54
-7.84444 3.12765 8.51483 0.993845 0.0548598 0.0962391 119 95 54
-8.0272 3.22117 9.31633 0.897837 0.431496 -0.087744 110 87 44
-8.11274 3.24475 9.59309 0.899143 0.428298 -0.0900099 103 80 37
-9.38561 3.98637 -4.4128 -0.0716597 0.238695 0.968447 189 165 121
-12.508 5.04884 -2.36188 0.0276023 -0.732207 0.680523 179 158 129
-12.5104 5.05047 -2.36414 0.0215446 -0.746181 0.665394 183 161 130
-9.82415 4.0433 5.09352 0.866032 -0.0356979 0.498712 177 145 94
-10.33 4.11992 5.59851 0.911865 0.0364316 0.40887 123 80 19
-9.22234 3.81536 6.19889 0.814455 -0.0540925 -0.5777 140 92 17
-9.16185 3.74707 6.28818 0.863846 -0.00518227 -0.50373 150 103 26
-9.09967 3.6793 6.38049 0.878418 0.145726 -0.455132 144 97 19
-8.94081 3.63458 6.60629 0.833278 0.10318 -0.543141 144 97 19
-8.87657 3.61264 6.73685 0.730496 0.292663 -0.617028 144 97 21
-8.80841 3.67283 6.81887 0.848414 0.0720464 -0.524407 144 96 21
-8.66683 3.56163 7.01755 0.805989 0.25497 -0.534202 143 95 22
-8.67419 3.56001 7.01831 0.806677 0.182491 -0.562112 143 95 22
-8.75351 3.61164 6.9201 0.917361 0.0585592 -0.393725 138 89 16
-8.60827 3.50487 7.09011 0.86641 0.101576 -0.488893 143 94 22
-8.55665 3.57722 7.18818 0.855059 0.100444 -0.508709 141 92 19
-8.4582 3.49349 7.34858 0.936448 0.117271 -0.330624 142 95 21
-8.37888 3.43229 7.46741 0.882121 0.097532 -0.460815 134 86 14
-8.17371 3.34572 7.74706 0.955099 -0.122779 -0.269652 141 91 19
-7.80716 3.26061 8.28042 0.99258 -0.0401895 0.114762 133 89 25
-7.84618 3.26458 8.51498 0.994169 0.00561669 0.107683 123 98 54
-8.09056 3.36702 9.48597 0.927812 0.36305 -0.0857932 116 93 49
-8.06351 3.29993 9.4491 0.987159 0.143144 0.0709072 109 87 43
-8.01656 3.28004 9.58954 0.855996 0.459353 -0.237204 103 80 37
-5.90447 2.98531 -7.31403 -0.261989 0.323016 0.909408 186 159 115
-9.48725 3.97745 4.83255 0.795604 -0.243678 0.554649 179 147 97
-9.62682 4.01192 4.83674 0.854034 -0.0585926 0.516907 180 148 98
-9.85647 4.07199 5.108 0.865264 -0.0390776 0.499792 176 144 93
-9.88245 4.12277 5.21689 0.880441 0.00638187 0.474114 170 133 82
-9.91691 4.19068 5.26837 0.881975 0.00665477 0.471249 147 108 56
-9.93883 4.2023 5.33986 0.983224 0.0389164 0.178204 128 88 26
-10.3168 4.26805 5.58748 0.918737 -0.0757686 0.387533 122 80 18
-9.28761 3.89188 6.11467 0.724042 0.0518534 -0.687804 137 89 14
-9.10976 3.81364 6.38858 0.888252 -0.0119796 -0.459201 144 97 19
-8.98533 3.81364 6.57496 0.814449 -0.0869567 -0.573682 142 94 19
-8.76298 3.74104 6.9127 0.892254 0.0720105 -0.445755 139 91 18
-8.82978 3.80289 6.81484 0.8076 0.0393574 -0.588416 141 94 18
-8.69151 3.68672 7.00619 0.777341 0.0853726 -0.62326 140 91 19
-8.60633 3.63221 7.09843 0.819466 0.0404263 -0.5717 144 96 21
-8.58235 3.7125 7.18666 0.776134 0.185518 -0.602659 146 98 22
-8.36145 3.55772 7.46907 0.867576 0.0505107 -0.494733 135 87 15
-8.31222 3.50199 7.56969 0.891879 -0.00453512 -0.452251 145 96 23
-8.30963 3.49906 7.57424 0.896137 -0.0358705 -0.442325 145 96 23
-8.17893 3.48595 7.7483 0.956709 -0.0676062 -0.283085 143 94 21
-8.07794 3.44787 8.09431 0.776274 0.587269 -0.22916 138 91 18
-7.83332 3.33965 8.17056 0.986812 0.0392609 -0.157036 142 94 22
-7.88036 3.34403 8.17748 0.970023 0.0220154 -0.242015 144 95 23
-7.87238 3.41315 8.29041 0.975829 -0.083381 -0.202006 134 90 25
-7.84233 3.33483 8.39686 0.958739 0.018654 -0.283674 88 55 13
-7.8006 3.39949 8.50688 0.984069 -0.0329626 -0.174702 129 104 57
-7.95822 3.38379 9.43564 0.995955 -0.086333 -0.0249268 112 89 45
-7.91367 3.36843 9.50104 0.749064 -0.330397 -0.574231 111 88 45
-5.90736 3.06345 -7.2843 -0.26202 0.322994 0.909407 182 156 111
-6.11453 3.23347 -7.296 0.67345 -0.525744 0.519672 178 153 108
-7.58416 3.61868 -6.12679 0.795634 0.39749 0.45713 190 163 117
-7.59268 3.72517 -6.12604 0.776558 0.407289 0.4807 194 167 121
-7.75039 3.7173 -6.12004 0.746659 0.0550343 0.662927 187 161 116
-10.4958 4.7618 -3.95687 0.422236 -0.271171 0.864976 190 164 120
-10.528 4.7354 -3.89134 0.437341 -0.279783 0.854667 187 161 118
-9.38165 4.16951 4.86032 0.196354 -0.615547 0.763248 179 148 97
-9.70574 4.18207 4.88026 0.904974 0.137119 0.402767 180 147 96
-9.89956 4.30174 5.22609 0.880605 0.000730336 0.473851 161 124 75
-9.95843 4.38224 5.35059 0.958925 -0.0122555 0.283394 127 87 24
-9.95542 4.34832 5.28443 0.885813 0.0183653 0.46368 139 102 48
-9.95582 4.37299 5.29104 0.894444 0.00362211 0.447166 136 98 44
-10.3056 4.41971 5.58819 0.960666 0.020008 0.276985 124 80 18
-8.7701 3.86655 6.90788 0.8824 0.035161 -0.469185 140 92 18
-8.70255 3.80645 7.00346 0.787329 0.157941 -0.595959 140 92 20
-8.42972 3.7585 7.36027 0.86952 0.0273637 -0.493139 140 92 19
-8.36482 3.6879 7.46929 0.90921 0.047019 -0.413673 135 88 14
-8.3114 3.63361 7.56955 0.92145 0.0275172 -0.38752 145 97 23
-8.31437 3.62891 7.56819 0.88382 0.00399457 -0.46781 146 99 23
-8.3021 3.62877 7.57195 0.881096 0.0895528 -0.464381 145 97 23
-8.07878 3.58452 8.0833 0.847334 0.510548 -0.146172 141 93 20
-8.09838 3.58802 8.09385 0.780505 0.579929 -0.233438 141 93 21
-7.88201 3.47835 8.17918 0.965422 0.136754 -0.221945 143 95 23
-7.81771 3.46773 8.39738 0.982226 0.0170446 -0.186928 94 59 16
-7.81757 3.46768 8.39714 0.982247 0.0183541 -0.186694 94 59 16
-8.07772 3.55889 9.35771 0.885024 0.444849 -0.137265 108 84 42
-8.09276 3.49728 9.41135 0.833478 0.520799 -0.184616 117 93 49
-10.4802 4.96259 -4.05917 0.216239 -0.820517 0.529143 171 149 109
-10.5626 4.91541 -3.88888 0.347102 -0.551946 0.758205 179 155 114
-9.84124 4.49537 4.93322 0.940713 -0.338412 0.0231475 176 146 95
-9.87234 4.4647 4.87055 0.78499 -0.414401 0.460503 178 148 96
-9.90692 4.48784 4.86077 0.831645 -0.372912 0.411466 178 148 96
-9.80511 4.43115 4.97793 0.979952 -0.199193 -0.00392959 175 145 93
-9.71362 4.31084 4.9242 0.82778 -0.303183 0.472082 178 147 96
-9.8688 4.38874 5.12349 0.899334 -0.0253562 0.436526 175 142 92
-10.3015 4.57119 5.58405 0.960562 0.0256485 0.276882 122 77 18
-8.77524 3.99574 6.90405 0.889681 0.000720561 -0.456582 139 92 18
-8.83447 3.9346 6.81433 0.810241 0.0236669 -0.585619 143 95 19
-8.70583 3.93471 6.9978 0.819412 0.0578714 -0.570277 138 90 18
-8.5844 3.91771 7.14142 0.782564 0.0387842 -0.62136 148 100 25
-8.37916 3.83666 7.45907 0.907745 0.193306 -0.372334 133 86 14
-8.3171 3.77275 7.57109 0.895956 0.119876 -0.427659 144 96 23
-8.30675 3.75677 7.55933 0.858661 0.0905884 -0.504475 144 96 23
-8.26181 3.70646 7.68494 0.85278 0.161687 -0.496612 141 94 20
-8.2589 3.71075 7.68697 0.840963 0.157501 -0.517662 142 94 21
-8.15198 3.69785 7.85878 0.847262 -0.0107564 -0.531066 136 88 18
-8.09837 3.63336 7.95572 0.900689 0.196889 -0.387291 136 87 18
-8.08679 3.63133 7.967 0.913399 0.13725 -0.38323 139 90 19
-7.8772 3.54887 8.29289 0.97231 -0.105197 -0.208678 137 92 27
-7.82297 3.6034 8.40012 0.982302 0.0494274 -0.180665 95 60 18
-8.15206 3.71622 9.51873 0.965657 -0.251193 -0.0663984 115 92 48
-8.08681 3.6678 9.51867 0.96448 0.144584 -0.221073 117 94 48
-9.82369 4.81998 -4.38867 0.195648 -0.114593 0.973956 196 170 126
-9.78089 4.93386 -4.48713 0.934252 -0.296629 0.19795 186 161 118
-9.81217 4.93505 -4.50797 0.337467 -0.551229 0.763062 186 161 118
-10.6642 5.10035 -3.20995 0.0441052 -0.830406 0.55541 60 54 37
-10.6361 5.11186 -3.28493 0.0663599 -0.915209 0.397478 56 50 34
-9.74437 4.60014 4.74407 0.74309 -0.35345 0.568234 179 149 98
-9.76463 4.5866 4.75437 0.732119 -0.352854 0.582663 180 149 99
-9.79125 4.59168 4.91944 0.915328 -0.0028621 0.402699 175 145 94
-9.87414 4.51874 4.92352 0.953734 -0.294663 0.0597165 177 146 95
-9.81524 4.57213 5.059 0.873047 -0.0233492 0.487077 175 145 94
-9.92071 4.62531 5.04365 0.916714 -0.399131 0.0181585 184 151 102
-9.92105 4.59175 5.20273 0.918419 0.259556 0.298558 172 136 85
-9.99815 4.56017 5.34528 0.970473 0.0982587 0.220291 131 95 40
-8.77703 4.13688 6.90738 0.848169 0.0674278 -0.525417 133 85 13
-8.71088 4.06372 6.99381 0.817709 0.0424186 -0.574067 137 90 17
-8.63771 3.99984 7.09011 0.786469 -0.0578443 -0.614915 141 93 20
-8.63741 4.00073 7.09256 0.755276 0.0291196 -0.65476 141 93 20
-8.38979 3.97895 7.45804 0.947335 0.0686096 -0.312809 135 87 13
-8.31901 3.89122 7.55712 0.88494 0.0489139 -0.463129 146 98 25
-8.3315 3.91223 7.56661 0.864343 0.122297 -0.487806 145 97 25
-8.25183 3.82925 7.65815 0.806983 0.0640326 -0.587093 140 91 18
-8.2639 3.84547 7.67298 0.815956 0.0155923 -0.577903 137 90 19
-8.12841 3.83008 7.85571 0.851696 0.0687819 -0.519502 138 89 17
-8.13069 3.83767 7.87993 0.688173 0.0271375 -0.725039 136 87 15
-8.08803 3.7736 7.96543 0.870395 0.102132 -0.481644 138 90 18
-8.05418 3.77845 7.97495 0.82746 -0.0154694 -0.561312 140 91 18
-8.1112 3.73218 9.21072 0.860875 0.474336 -0.184116 125 103 53
-8.22971 3.82537 9.51103 0.911812 -0.380509 0.154311 115 92 47
-7.17265 4.15527 -7.25564 0.594475 0.312511 0.740903 193 166 120
-7.11907 4.07677 -7.25457 0.468932 0.304087 0.829237 185 159 115
-9.90988 5.01863 -4.47799 0.170365 -0.905662 0.388268 184 160 119
-9.56837 4.59531 4.74381 0.836769 -0.130685 0.531732 178 147 97
-9.71323 4.61232 4.80134 0.825066 -0.35727 0.43775 178 148 97
-9.92072 4.78669 5.24553 0.741428 -0.373232 0.557657 142 109 67
-9.95783 4.70032 5.25482 0.864298 -0.071786 0.497832 151 117 67
-9.97571 4.76775 5.37688 0.857551 -0.290329 0.424635 120 80 25
-8.78742 4.27112 6.90711 0.848246 0.0283066 -0.528846 135 87 15
-8.79134 4.26652 6.90515 0.859532 0.015239 -0.510854 136 88 16
-8.71322 4.20442 6.99919 0.76642 0.0353696 -0.641365 138 91 18
-8.64237 4.12957 7.08477 0.755853 0.0738906 -0.650559 140 92 20
-8.63179 4.13901 7.08226 0.764216 0.0667128 -0.641501 140 93 20
-8.56943 4.07513 7.18134 0.816123 0.0501728 -0.575697 140 92 20
-8.52566 4.09221 7.24133 0.754957 0.0464114 -0.65413 142 94 22
-8.47534 4.0431 7.35091 0.928966 0.0377137 -0.368239 141 93 20
-8.38797 4.09261 7.44974 0.854236 0.0774558 -0.514082 133 85 13
-8.32563 4.02768 7.55611 0.878317 0.069448 -0.473008 144 96 23
-8.26151 3.95916 7.65548 0.790179 0.0221351 -0.612476 139 91 17
-7.82683 3.76761 8.39914 0.818073 0.0435921 -0.57346 94 59 15
-8.22439 3.85962 9.51091 0.743375 -0.655881 0.131205 118 95 49
-6.03325 3.88284 -7.54346 -0.337821 0.3392 0.877964 198 171 124
-6.08442 3.74535 -7.44223 -0.425545 0.328227 0.843314 193 165 119
-8.40249 4.72633 -4.4782 0.528477 0.453158 0.717886 179 157 118
-9.4643 5.08184 -4.53576 0.246155 -0.635661 0.731671 97 82 57
-9.89288 5.21321 -4.16387 0.356886 -0.624879 0.694377 54 47 30
-8.89142 4.51052 4.47632 0.810369 -0.200193 0.550658 184 153 105
-9.67089 4.84181 4.98943 0.407112 -0.822856 0.396443 163 137 93
-9.81058 4.85703 5.15114 0.508833 -0.743576 0.433801 117 94 65
-9.87341 4.90533 5.49422 0.931873 0.255766 -0.257287 100 70 30
-9.78482 4.81831 5.61846 0.930156 0.281623 -0.23558 131 88 25
-10.0428 4.86418 6.18096 0.894074 -0.0898915 0.438806 139 88 18
-10.1375 4.99133 6.39953 0.871627 -0.459962 -0.169416 141 89 19
-8.79161 4.38802 6.89281 0.842311 -0.00299862 -0.538983 138 91 19
-8.70498 4.33062 6.99058 0.812338 0.0816979 -0.577436 137 90 18
-8.57399 4.20362 7.17299 0.768768 0.0271121 -0.638952 141 93 21
-8.34801 4.17296 7.55139 0.885889 0.0350525 -0.462571 143 95 22
-8.33005 4.1627 7.54906 0.84362 -0.0405051 -0.53541 143 95 23
-8.26421 4.09575 7.65142 0.835157 0.00941536 -0.549931 138 90 18
-8.20253 4.0319 7.75529 0.893576 0.0917009 -0.439446 139 91 19
-8.06321 4.05069 7.97041 0.785742 0.0352778 -0.617547 135 86 17
-7.88591 3.93281 8.4073 0.872561 0.193827 -0.448407 97 64 18
-8.24079 4.06308 9.45674 0.579239 -0.660156 -0.478201 119 96 49
-8.2046 3.97044 9.5185 0.900558 -0.391448 -0.189116 116 94 47
-7.97486 4.71217 -4.94334 0.408643 -0.23285 0.882492 196 170 126
-8.40699 4.88346 -4.95888 0.514115 -0.554567 0.654325 192 166 123
-10.0771 5.46368 -3.8948 0.598469 0.436391 0.671862 92 79 54
-9.2451 4.83205 4.676 0.369222 -0.845345 0.386091 181 153 105
-9.41373 4.81521 4.81471 0.452032 -0.771128 0.448362 175 147 102
-9.38032 4.83606 4.81927 0.477387 -0.742841 0.469349 170 142 100
-9.35681 4.82354 4.80685 0.597565 -0.590041 0.542926 173 145 102
-9.75998 5.02895 5.2128 0.649808 -0.558778 0.515283 42 30 13
-9.87426 5.02944 5.3616 0.589601 -0.641004 0.491411 35 24 11
-9.99241 5.11917 5.5958 0.928081 -0.326852 -0.178417 38 26 7
-9.82685 5.04205 5.75067 0.872034 0.467395 -0.145257 51 31 9
-9.61545 4.85326 5.83276 0.838934 -0.32465 -0.436797 122 85 28
-9.87577 4.91705 5.85495 0.784271 -0.457244 -0.419342 130 85 21
-9.69936 4.92877 5.91996 0.933544 0.310623 -0.178914 120 85 30
-9.90122 4.94324 6.13358 0.832181 -0.483469 -0.271539 137 88 19
-9.79058 4.98526 6.33486 0.781628 -0.575651 -0.240173 135 87 20
-9.87487 4.96931 6.23216 0.871518 -0.485195 -0.0710143 136 87 18
-8.79532 4.52553 6.89712 0.874961 0.0165928 -0.48391 137 90 18
-8.71763 4.46622 6.98969 0.837413 0.0542829 -0.543868 137 89 20
-8.40271 4.23072 7.44962 0.874554 0.050915 -0.482249 133 85 13
-8.34669 4.30822 7.54389 0.786753 0.0230755 -0.616837 145 97 25
-8.15075 4.15867 7.81934 0.915386 0.0802473 -0.394498 138 92 18
-7.95736 4.10191 8.41253 0.904506 0.41284 -0.10692 99 65 18
-7.91587 4.05091 8.54171 0.768185 0.568218 -0.294992 120 98 55
-6.35644 4.22736 -7.4289 0.245741 0.267897 0.931581 194 166 121
-7.82185 4.77166 -5.32689 0.406742 -0.597153 0.691353 194 167 123
-7.81792 4.76792 -5.32751 0.40067 -0.587843 0.702783 194 167 123
-7.81176 4.77084 -5.32374 0.428735 -0.568866 0.701839 194 168 123
-8.19704 5.0422 -4.86042 0.505208 -0.297761 0.810002 56 47 30
-9.72755 5.5282 -4.01773 0.606843 0.430939 0.667857 95 80 53
-9.11342 4.8132 4.64595 0.728429 -0.372628 0.574925 181 155 106
-9.2897 4.9464 4.87599 0.523632 -0.688313 0.50203 69 50 19
-9.87009 5.21176 5.337 0.89318 -0.0750613 0.443391 122 106 67
-9.9717 5.17638 5.46396 0.920762 -0.279722 -0.271944 55 43 21
-9.97682 5.26558 5.6146 0.894588 -0.340419 -0.28953 82 67 35
-9.93316 5.16849 5.70302 0.894312 -0.338747 -0.292329 41 29 12
-9.93314 5.17106 5.696 0.898606 -0.325867 -0.2938 42 29 12
-9.93022 5.16994 5.7014 0.894753 -0.336369 -0.293724 42 29 12
-9.81337 5.13612 5.92264 0.889573 0.447013 -0.0940147 41 25 9
-9.85602 5.07386 6.14879 0.966151 -0.202838 -0.1594 116 81 32
-9.73588 5.12261 6.23324 0.802685 -0.556893 -0.213463 67 44 16
-8.80496 4.66992 6.90469 0.844732 0.0723823 -0.530273 134 86 16
-8.72037 4.59764 6.99554 0.825776 0.0954514 -0.555863 135 89 21
-8.46965 4.43837 7.34673 0.900801 0.0400732 -0.432379 137 90 19
-8.40822 4.36821 7.44975 0.884947 0.0226888 -0.465138 132 85 14
-8.28564 4.36522 7.64486 0.85194 0.114054 -0.511068 137 89 20
-7.25918 4.84199 -5.66626 0.517304 -0.280542 0.808513 197 169 126
-8.0089 5.14244 -4.88381 0.378426 -0.593614 0.710223 56 49 34
-8.3792 5.17114 -4.76474 0.616322 -0.396832 0.6802 54 50 34
-8.32012 5.17727 -4.88217 0.554892 -0.268054 0.787555 50 45 31
-8.30468 5.27615 -4.55989 0.382389 -0.344949 0.857198 91 78 53
-8.69526 5.45614 -4.6238 0.0684138 -0.18343 0.980649 95 82 54
-9.70067 5.29726 5.24389 0.687598 -0.49659 0.529724 148 131 68
-9.98973 5.35397 5.76972 0.855514 -0.422812 -0.298872 108 91 50
-9.92423 5.24278 5.84271 0.951823 -0.216818 -0.216847 50 38 18
-9.74736 5.19482 6.06217 0.975022 0.187309 -0.119363 40 28 10
-9.88323 5.26105 5.98496 0.920035 0.383788 -0.0790052 45 33 13
-9.87226 5.25817 6.14516 0.946591 0.208633 0.24584 40 26 8
-9.75309 5.20795 6.21284 0.877062 -0.419013 -0.234924 40 26 9
-9.79973 5.27953 6.23242 0.945778 0.277643 0.168574 42 30 11
-9.77323 5.22931 6.51658 0.751785 -0.610797 -0.248488 66 43 13
-8.4171 4.51048 7.45548 0.857396 0.0265676 -0.513971 131 84 12
-8.35027 4.4372 7.55253 0.838437 -0.0348892 -0.543881 143 96 25
-6.98679 4.86151 -5.77342 0.609218 -0.118752 0.784061 195 168 123
-7.04247 4.85694 -5.77082 0.524284 -0.185362 0.831124 197 169 124
-7.16613 4.90196 -5.67164 0.630507 -0.142453 0.762999 188 163 121
-7.18232 4.90534 -5.68752 0.53993 -0.311001 0.782147 188 163 122
-7.06885 4.93674 -5.72214 0.599455 -0.0798842 0.796412 178 154 115
-7.10842 4.92814 -5.78335 0.399553 -0.609678 0.684581 192 164 123
-7.28881 4.93156 -5.65665 0.429713 -0.636902 0.64008 186 161 121
-7.29949 4.92727 -5.66027 0.411375 -0.686328 0.599771 188 162 122
-7.19714 5.00006 -5.64202 0.545774 -0.387555 0.742921 144 125 91
-7.20803 4.99554 -5.6428 0.534532 -0.377922 0.755944 151 132 97
-7.39305 5.00648 -5.52438 0.465703 -0.615219 0.636102 134 115 85
-7.39933 5.00945 -5.52349 0.455336 -0.632186 0.626905 133 114 83
-7.30301 5.006 -5.55365 0.53764 -0.292129 0.790951 125 107 78
-7.29274 5.01437 -5.58276 0.451187 -0.59745 0.662935 129 111 80
-7.30509 5.00042 -5.55216 0.540496 -0.291192 0.789348 134 116 85
-7.41136 5.09683 -5.45883 0.51196 -0.493525 0.703086 61 50 32
-7.40553 5.09606 -5.46188 0.509312 -0.503644 0.697813 61 51 32
-7.52196 5.13362 -5.36854 0.533174 -0.351518 0.76952 54 47 30
-7.78447 5.25013 -5.20513 0.637591 -0.382717 0.668585 59 53 36
-7.98739 5.25418 -4.97973 0.420729 -0.557249 0.715863 72 63 44
-7.95169 5.30889 -4.98408 0.621336 -0.496397 0.606244 86 75 51
-7.92294 5.2823 -4.96743 0.616542 -0.479796 0.624238 83 73 50
-8.0429 5.22968 -4.81394 0.383938 -0.298102 0.873915 82 72 51
-8.05859 5.26121 -4.87627 0.28869 -0.437078 0.851834 80 71 50
-8.18181 5.24119 -4.8072 0.553113 -0.0169419 0.832934 74 65 46
-8.3226 5.46424 -4.7951 0.656732 0.0213014 0.753823 92 79 52
-8.32409 5.35689 -4.69836 0.936241 0.134786 0.324477 95 81 55
-8.48461 5.36842 -4.66756 0.884526 0.0977493 0.456135 93 80 54
-8.61007 5.44619 -4.70106 0.453389 0.16633 0.875655 91 78 52
-8.41713 5.38497 -4.59122 0.505295 0.392981 0.768273 93 79 53
-8.57425 5.51386 -4.46947 -0.338852 -0.687672 0.642095 102 87 57
-8.81929 5.61403 -4.46984 -0.220845 -0.250758 0.942522 101 85 55
-8.75888 5.50058 -4.24535 -0.207484 -0.380456 0.901223 102 87 56
-9.97493 5.50028 5.79856 0.669546 -0.622282 -0.405553 141 119 51
-9.95449 5.41341 5.89814 0.847519 -0.430966 -0.309806 123 106 55
-9.98871 5.48461 5.80292 0.835829 -0.459251 -0.300796 138 117 51
-9.72338 5.27436 6.20263 0.89646 0.439735 -0.0547035 50 38 16
-9.72238 5.27152 6.30613 0.98466 -0.10334 -0.140589 42 31 13
-9.69516 5.29005 6.5918 0.975996 -0.0598847 -0.209393 42 28 11
-9.78627 5.41046 6.50703 0.964436 0.0208269 -0.263494 53 41 19
-8.42695 4.65227 7.46056 0.865974 0.075904 -0.494295 129 83 13
-8.36579 4.58638 7.56621 0.919106 0.037794 -0.392193 143 95 25
-6.68462 4.8299 -5.85888 0.834399 -0.474895 0.279738 195 168 123
-6.80736 4.85829 -5.77087 0.602443 0.187685 0.775782 191 165 124
-6.97005 4.98102 -5.77216 0.570219 -0.0228726 0.821174 152 133 99
-6.96492 4.97692 -5.77436 0.569889 -0.0164187 0.821558 159 139 104
-7.10246 5.00175 -5.70041 0.497869 -0.44328 0.745406 146 127 94
-7.13542 5.01313 -5.66356 0.614417 -0.0966828 0.783035 127 111 79
-7.03979 5.09261 -5.70802 0.462225 -0.554838 0.691739 64 54 30
-7.04823 5.11733 -5.72186 0.549652 -0.323257 0.770316 55 48 26
-7.13086 5.09006 -5.6393 0.565839 -0.259185 0.782719 64 55 33
-7.11634 5.1323 -5.66307 0.645761 -0.169877 0.744402 54 47 27
-7.18708 5.18046 -5.59208 0.556882 -0.376849 0.740181 52 47 31
-7.05668 5.11931 -5.50522 0.247189 -0.236853 0.939573 50 47 32
-7.26501 5.22019 -5.47697 0.750448 -0.373579 0.545221 55 48 32
-7.31315 5.08262 -5.52844 0.541397 -0.305885 0.78315 63 52 32
-7.42976 5.14219 -5.44016 0.574139 -0.248683 0.780078 52 45 30
-7.3473 5.18618 -5.48099 0.561118 -0.32062 0.763118 51 46 31
-7.33857 5.18318 -5.48099 0.557772 -0.343531 0.755564 51 46 31
-7.54704 5.21698 -5.28635 0.44196 -0.502207 0.743276 57 51 35
-7.46941 5.23761 -5.38632 0.581067 -0.386373 0.716294 57 52 35
-7.54375 5.21861 -5.28755 0.414029 -0.509399 0.754382 57 51 35
-7.48181 5.2663 -5.17323 0.313558 -0.341688 0.885963 86 75 52
-7.46299 5.25762 -5.16236 0.294827 -0.372549 0.879934 87 76 53
-7.75606 5.39547 -5.08024 0.123428 -0.975946 0.179706 90 77 50
-7.89887 5.3213 -4.78669 0.438757 -0.506893 0.741992 93 79 52
-7.89169 5.35846 -4.80533 0.561814 -0.54674 0.620838 94 80 52
-8.61825 5.7012 -4.65935 -0.345236 -0.00179159 0.938514 98 83 53
-9.46808 5.38491 5.1915 0.933507 -0.35608 0.0420871 159 138 68
-9.38516 5.41473 5.27917 0.990024 -0.0727804 -0.120645 163 139 70
-9.7738 5.49877 5.50242 0.968583 -0.155598 -0.194002 153 132 61
-9.7718 5.45747 6.3376 0.964442 -0.0713442 0.254483 116 99 53
-9.74887 5.4847 6.63729 0.963418 -0.199102 -0.179397 77 63 32
-5.70327 4.64224 -5.88172 0.66213 0.372519 0.650241 189 166 122
-6.70564 5.05358 -5.83239 0.52021 0.342818 0.782213 62 52 29
-6.87355 5.10107 -5.64236 0.295355 -0.272838 0.915601 50 45 29
-6.89732 5.14226 -5.64636 0.288061 -0.283662 0.914635 52 47 31
-7.07881 5.19232 -5.63261 0.500391 -0.51578 0.695399 50 46 30
-7.08753 5.24612 -5.66381 0.4753 0.218736 0.8522 58 53 36
-6.98041 5.23437 -5.48335 0.182543 0.174583 0.967574 80 70 49
-7.36631 5.34163 -5.01332 -0.273518 -0.429984 0.860408 96 81 52
-7.88294 5.51745 -4.97721 0.970831 -0.120156 0.207483 104 88 58
-9.72976 5.64116 6.64573 0.962769 -0.199986 -0.181885 141 120 55
-5.6271 4.65312 -6.03478 0.770942 0.412423 0.485341 195 170 125
-5.91692 4.6996 -3.9882 0.296413 -0.326483 0.897523 77 67 48
-7.30895 5.42946 -5.17831 0.833005 0.00179175 0.553263 98 82 54
-7.34935 5.4725 -5.23602 -0.31897 -0.525336 0.788847 97 81 53
-7.67574 5.61515 -5.3876 0.364809 0.326862 0.871823 94 79 50
-5.56702 4.97907 -6.62358 0.233021 -0.938947 0.253138 131 114 82
-4.56684 4.69957 -6.99837 0.852511 0.391057 0.346841 183 156 111
-5.13922 4.77734 -4.32873 0.80377 0.0888176 0.588273 95 81 54
-2.87049 4.0015 -5.03097 0.648131 -0.680122 0.342577 191 165 120
-3.14086 4.13262 -4.92709 0.493473 -0.723272 0.483075 183 160 118
-2.84139 4.22549 -5.80525 0.331052 -0.744887 0.579265 187 162 117
-2.84139 4.22549 -5.80525 0.331052 -0.744887 0.579265 181 157 114
-2.97393 4.09477 -5.13097 0.368563 -0.693869 0.618634 191 165 121
-2.99583 4.13387 -4.7865 0.33564 -0.148927 0.930143 148 128 94
-3.57486 4.44946 -4.73752 0.377336 -0.156507 0.912756 62 55 35
-3.73997 4.63654 -4.86193 0.822129 0.246654 0.513094 90 80 54
-2.60166 3.99447 -5.00587 0.64596 -0.526772 0.552492 187 162 117
-2.70763 4.17633 -5.10177 0.768293 -0.586976 0.255313 152 132 96
-2.80118 4.15663 -4.96388 0.647673 -0.613603 0.451677 146 128 93
-2.7954 4.14438 -4.92996 0.223121 -0.731649 0.644132 146 128 93
-2.914 4.17836 -4.95773 0.340875 -0.418712 0.841715 144 126 91
-2.91187 4.25998 -4.8045 0.304704 -0.266657 0.914358 58 49 29
-3.03754 4.27354 -4.78786 0.326573 -0.317954 0.890087 59 50 30
-3.25628 4.4116 -4.74487 0.35554 -0.30801 0.882452 65 58 39
-3.45472 4.53647 -4.66531 0.227951 -0.398132 0.888554 98 85 56
-3.49699 4.56836 -4.73925 0.608051 -0.291272 0.738535 98 86 57
-2.80913 4.27574 -4.89573 0.299343 -0.393766 0.869104 56 48 28
-3.37184 4.64849 -4.9982 0.168393 0.10205 0.980423 97 83 55
-2.58846 4.29905 -5.11535 0.358237 -0.748377 0.558209 59 48 26
-3.79482 5.42431 -7.56631 0.366906 -0.684912 0.629505 84 74 48
-3.76319 5.50052 -7.41646 0.216424 -0.957187 0.192231 91 76 49
-3.31507 5.35842 -6.64621 0.907021 -0.19447 0.373489 108 89 59
-1.22081 4.88209 -10.3023 0.613561 -0.367942 0.698686 117 74 13
-1.27759 4.96563 -10.0188 0.619449 -0.615981 0.486674 131 84 16
-1.78496 4.53977 -4.5337 -0.473247 -0.261158 0.841329 108 88 55
-1.61128 4.5062 -4.26628 -0.471742 -0.238679 0.848818 106 86 54
-1.38542 4.51148 -4.37745 -0.546332 -0.62036 0.562738 102 84 52
-0.983029 5.56067 -10.3891 0.686487 -0.481357 0.545006 87 63 32
-0.898171 5.74896 -10.3334 0.720062 -0.341855 0.60386 80 66 45
-8.83896 -1.66932 -2.5277 0.0321929 -0.108577 0.993567 145 126 82
-12.3568 -0.786066 -2.40263 0.271924 0.866915 0.417751 137 118 100
4.37415 -1.54469 1.01463 0.0377091 -0.304031 0.951916 191 169 90
4.4078 -1.45835 1.064 0.0834645 -0.241084 0.966909 198 176 101
-0.126934 -2.37368 -2.67514 0.152501 0.856771 0.492632 118 97 50
4.23697 -1.61508 0.564363 -0.511058 0.0570804 0.857649 172 153 78
4.24148 -1.62096 0.485635 -0.607656 0.191369 0.7708 172 153 77
0.807571 -2.54411 -2.84705 -0.665953 0.405164 0.626378 240 221 160
0.807571 -2.54411 -2.84705 -0.665953 0.405164 0.626378 240 221 160
0.843359 -2.50047 -2.7421 -0.665893 0.405473 0.626241 237 218 157
0.61663 -2.58516 -3.0701 -0.0980802 0.925111 0.366811 251 238 175
0.527578 -2.50874 -3.00621 -0.10274 0.948714 0.298977 251 241 179
0.194496 -2.38395 -2.78518 0.371101 0.668395 0.644618 124 106 55
-0.0131513 -2.35505 -2.73872 0.105558 0.897035 0.429169 116 95 48
-8.58412 -1.8234 -4.49226 -0.11545 -0.105765 0.987666 121 99 54
4.62852 -1.4643 0.882458 -0.162621 -0.423895 0.890992 208 187 111
4.63936 -1.49489 0.847126 -0.190389 -0.484267 0.853954 212 192 106
4.63669 -1.54009 0.743254 -0.185761 -0.351385 0.917617 218 198 102
4.60249 -1.52605 0.709838 -0.186096 -0.350155 0.91802 207 183 100
4.50491 -1.58185 0.567034 -0.321265 -0.250432 0.913276 192 169 93
4.15693 -1.5602 0.497878 -0.583589 0.200188 0.786987 176 155 82
0.750271 -2.54735 -3.15862 -0.0543937 0.867276 0.494848 248 233 169
0.655558 -2.48347 -3.13445 -0.115283 0.944321 0.308169 249 238 174
0.38513 -2.48161 -3.05981 -0.0821892 0.946366 0.312467 170 156 106
0.26363 -2.43157 -3.06296 -0.111973 0.94812 0.297542 120 101 51
4.53012 -1.45219 0.748936 -0.0409038 -0.346177 0.937277 210 187 102
1.98848 -3.19341 -4.4619 0.438667 0.463228 0.770059 192 165 113
2.41844 -3.25707 -4.72803 0.382293 0.585604 0.714787 176 150 99
2.41993 -3.25456 -4.70789 0.401625 0.500363 0.76703 175 150 98
1.77386 -2.64946 -4.12871 0.0483104 0.212497 0.975967 210 182 126
1.35479 -2.48756 -3.79912 -0.167499 0.944519 0.282537 169 150 97
3.1292 -3.1147 -4.99866 -0.819057 -0.0121951 0.573583 166 143 90
-7.94671 -1.49457 -5.8863 0.737105 0.0211747 0.675446 137 119 70
-13.0507 0.563458 -2.48534 0.578693 0.132441 0.80472 145 128 110
4.12935 -2.6784 -3.72855 -0.781843 0.441732 0.439993 200 172 119
4.04128 -2.72129 -3.91661 -0.850319 0.395756 0.346894 196 167 117
4.03421 -2.71933 -3.91004 -0.855591 0.388559 0.342031 196 167 117
3.9118 -2.66204 -3.8133 -0.858631 0.36396 0.360952 194 165 115
3.28702 -3.02148 -4.91313 -0.888347 0.178838 0.422914 182 157 105
3.05221 -2.91869 -4.96944 -0.842655 0.185598 0.505456 171 146 94
-1.48395 -2.22134 -5.15218 -0.387056 0.742228 0.54707 120 98 54
-1.48218 -2.22028 -5.14855 -0.388898 0.740154 0.548571 115 94 51
-7.83615 -1.37937 -5.91956 0.921115 -0.362961 0.140735 142 126 76
-7.85334 -1.36988 -5.81604 0.891233 -0.402273 0.209474 141 124 75
-7.81994 -1.34385 -5.65366 0.756024 0.0537565 0.652333 140 121 72
-7.79243 -1.23522 -5.53089 0.840249 0.471658 0.267431 142 124 75
-7.8033 -1.30188 -5.50844 0.841672 0.471434 0.263322 142 122 73
-7.96162 -1.33574 -5.77428 0.954217 0.219458 0.203242 141 122 73
-7.96162 -1.33574 -5.77428 0.954217 0.219458 0.203242 141 122 73
-12.7164 0.711174 -2.34093 0.154652 0.173353 0.972642 159 143 123
4.19294 -2.60906 -3.58534 -0.862209 0.391785 0.321093 201 173 120
4.21938 -2.60841 -3.62257 -0.869889 0.368705 0.327642 202 174 121
3.154 -2.82898 -4.78897 -0.84514 0.123062 0.520186 189 160 109
3.12283 -2.76546 -4.77759 -0.838115 0.41341 0.355886 191 162 111
0.329892 -2.46955 -5.21621 0.0630745 -0.685822 0.725031 106 85 45
0.300681 -2.22467 -4.60588 -0.630007 0.0899933 0.771358 109 87 45
0.369249 -2.19111 -4.66291 -0.707833 -0.0279737 0.705825 110 87 46
-5.2746 -2.13892 -7.21284 -0.339015 -0.211484 0.916703 142 124 83
-7.89428 -1.13405 -5.69859 0.935926 0.273682 0.221675 146 129 80
-13.7999 0.785998 -2.93194 0.137865 -0.534395 0.833916 137 121 98
4.33213 -2.45932 -3.46827 -0.861874 0.364897 0.352169 208 181 125
4.19317 -2.46455 -3.62815 -0.729993 0.506386 0.459002 206 179 123
4.23562 -2.49502 -3.57362 -0.708482 0.527731 0.468565 205 177 122
4.17405 -2.47333 -3.63584 -0.764598 0.494548 0.413293 206 179 123
4.09581 -2.51588 -3.747 -0.858363 0.386423 0.337477 205 177 123
4.00134 -2.56795 -3.91391 -0.820814 0.397681 0.410018 201 173 121
4.02114 -2.51151 -3.78485 -0.688761 0.65134 0.318378 203 175 122
4.03016 -2.53642 -3.91899 -0.854727 0.322245 0.406939 204 175 123
3.92131 -2.55248 -3.95295 -0.719083 0.58022 0.382446 199 171 119
3.80582 -2.60659 -4.15071 -0.844813 0.390389 0.365906 196 167 117
3.7884 -2.60604 -4.13724 -0.847775 0.378488 0.371516 196 167 117
3.2438 -2.69084 -4.82849 -0.771247 0.311312 0.555214 184 156 106
3.12547 -2.68084 -4.88981 -0.870766 0.28284 0.402204 195 167 115
3.13317 -2.71813 -5.01727 -0.84642 0.191206 0.497004 195 168 115
3.04645 -2.72661 -5.00364 -0.726168 0.51541 0.455008 185 160 108
0.210481 -2.34511 -5.43086 -0.623978 -0.111321 0.773472 106 84 44
0.0774678 -2.25982 -5.17498 -0.717053 0.0824526 0.692125 110 88 46
0.277402 -2.09049 -4.73448 -0.715313 0.0320262 0.69807 112 89 49
-1.13477 -2.04958 -5.13946 0.0623985 0.959413 0.275016 125 104 61
-1.13477 -2.04958 -5.13946 0.0623985 0.959413 0.275016 125 104 61
-5.09284 -1.96603 -6.9461 -0.4299 -0.0770731 0.899581 154 134 95
4.39141 -2.30762 -3.42632 -0.720202 0.418692 0.553178 105 86 28
4.29587 -2.34437 -3.5344 -0.768874 0.376697 0.516655 154 132 75
4.27169 -2.33587 -3.57259 -0.761771 0.327737 0.558832 139 118 61
4.17446 -2.35337 -3.69781 -0.656355 0.614944 0.437083 159 137 80
4.07278 -2.3865 -3.80983 -0.770811 0.45733 0.443508 195 170 115
3.97341 -2.4504 -3.93883 -0.720152 0.474295 0.506385 203 177 122
3.90737 -2.41735 -4.03506 -0.715174 0.260334 0.648654 200 175 121
3.88325 -2.45042 -4.06644 -0.726858 0.344566 0.594097 202 175 122
3.81081 -2.48967 -4.20193 -0.740513 0.210207 0.638321 201 172 121
3.77087 -2.45718 -4.17561 -0.774439 0.487537 0.403177 201 173 121
3.66243 -2.50479 -4.30621 -0.817182 0.437844 0.374841 200 170 120
3.44197 -2.5922 -4.58688 -0.724955 0.557819 0.404077 192 163 113
3.45389 -2.57206 -4.58013 -0.670489 0.544737 0.503693 192 164 114
3.33034 -2.61142 -4.70849 -0.808788 0.43437 0.396464 188 160 109
0.376454 -2.01933 -4.66513 -0.695051 -0.0719717 0.715349 112 90 48
-6.93596 -1.40904 -7.25915 0.76281 -0.498532 0.411809 161 143 100
-11.1481 0.628804 -3.03118 0.130701 0.604216 0.786028 186 162 122
4.10709 -2.32632 -3.79347 -0.782419 0.310507 0.53982 117 96 40
3.9541 -2.29962 -4.01951 -0.626141 0.610889 0.484522 95 78 21
3.95908 -2.32947 -3.99806 -0.658118 0.529533 0.535234 114 94 38
3.85021 -2.32089 -4.12369 -0.702855 0.398989 0.5889 104 86 30
3.85479 -2.31322 -4.10567 -0.733148 0.266298 0.625763 101 84 27
3.85328 -2.35078 -4.10966 -0.688136 0.479472 0.544588 141 121 64
3.74497 -2.3543 -4.25704 -0.688933 0.413708 0.595161 136 117 61
3.75077 -2.36493 -4.23999 -0.719117 0.2743 0.63846 154 133 78
3.74713 -2.37785 -4.2348 -0.68299 0.449782 0.575518 172 150 94
3.6376 -2.3685 -4.36546 -0.608209 0.445265 0.657131 162 141 86
3.64481 -2.38148 -4.36351 -0.613185 0.477364 0.629387 170 148 93
3.53336 -2.40785 -4.47625 -0.734995 0.494967 0.463455 188 164 110
3.4211 -2.43232 -4.61749 -0.695255 0.42924 0.576518 191 165 111
3.20079 -2.47886 -4.85985 -0.776866 0.422355 0.467007 189 162 111
3.18465 -2.47167 -4.90675 -0.828129 0.0892442 0.553388 194 167 114
-6.35585 -1.48365 -7.37778 0.244557 0.00870883 0.969596 171 150 109
-19.7691 1.70444 -5.04046 0.889067 0.404181 -0.214938 119 103 85
-19.8485 1.8374 -4.8854 0.905501 0.0201268 -0.423867 47 37 28
4.36136 -2.15669 -3.49747 -0.870554 0.373348 0.320541 88 75 21
4.26375 -2.20339 -3.59035 -0.871154 0.35867 0.33533 91 76 21
4.17086 -2.22704 -3.73404 -0.717906 0.52676 0.455121 92 77 21
4.15158 -2.15794 -3.73763 -0.861302 0.372516 0.34553 89 75 21
4.0582 -2.21317 -3.86912 -0.798652 0.282395 0.531421 90 77 20
4.04944 -2.26796 -3.9003 -0.775019 0.432037 0.461183 93 77 20
3.95569 -2.2597 -3.97123 -0.752591 0.248782 0.609684 91 76 20
3.8605 -2.29054 -4.12502 -0.70559 0.438433 0.556703 91 76 19
3.83548 -2.21535 -4.18175 -0.846708 0.372941 0.379474 88 75 19
3.73093 -2.25267 -4.32217 -0.744597 0.481482 0.462332 89 75 20
3.51097 -2.27915 -4.58135 -0.770855 0.435692 0.46471 85 72 16
3.15927 -2.34009 -4.97141 -0.806497 0.407982 0.427918 113 94 39
-20.6771 1.77227 -5.91652 0.915949 0.111693 -0.385439 111 96 72
-20.2947 1.88614 -5.50535 0.910381 0.125381 -0.394317 107 91 70
4.28672 -2.13397 -3.85411 -0.861272 0.385803 0.330707 86 73 21
4.16621 -2.16507 -3.88091 -0.337419 0.501359 0.796735 90 76 22
4.05664 -2.15898 -4.00573 -0.858244 0.365958 0.359849 88 75 22
4.02529 -2.16453 -3.97105 -0.803089 0.439913 0.4019 88 75 22
3.94346 -2.16971 -4.08513 -0.705501 0.540433 0.458477 86 75 20
3.9072 -2.16752 -4.10353 -0.708344 0.549911 0.442546 86 75 19
3.92106 -2.17606 -4.0859 -0.640306 0.573653 0.510814 86 75 19
3.83753 -2.13788 -4.17305 -0.825906 0.431869 0.362448 85 72 19
3.73458 -2.19699 -4.34333 -0.810004 0.429247 0.399549 86 73 20
3.62353 -2.24249 -4.46372 -0.627366 0.647553 0.432535 85 73 18
3.61988 -2.21076 -4.45721 -0.667474 0.563547 0.486716 84 72 18
3.50671 -2.25836 -4.58851 -0.806785 0.423793 0.411701 83 71 15
-6.45092 -1.02118 -7.25894 0.674456 -0.0311421 0.737658 170 149 108
-6.45445 -1.12299 -7.2573 0.741624 -0.210731 0.636857 173 151 110
-8.60685 0.180017 -4.45129 0.199496 0.103446 0.974423 164 149 116
-10.4158 0.652715 -3.86836 0.399587 -0.482345 0.779534 181 160 113
-11.2164 0.922644 -3.13419 0.076532 0.419831 0.90437 186 163 121
-20.3922 2.04258 -5.69107 0.909386 0.187403 -0.371346 96 81 58
4.52196 -2.22502 -4.298 -0.79457 0.309056 0.52263 86 74 21
4.38758 -2.17634 -4.2018 -0.472018 0.456418 0.754242 88 75 23
4.07851 -2.09774 -4.30542 0.225554 0.627174 0.745505 83 71 20
3.95898 -2.12326 -4.16351 -0.808135 0.482986 0.337108 84 72 19
3.61282 -2.07084 -4.56919 -0.800891 0.463753 0.378823 78 67 18
3.49302 -2.10597 -4.66004 -0.801408 0.451873 0.391862 78 67 17
3.37017 -2.13407 -4.71773 -0.807666 0.423816 0.409946 81 69 20
-5.4821 -1.55278 -8.92764 0.864792 -0.352309 0.35779 197 173 130
-19.4743 2.42813 -4.18511 0.858876 -0.174746 -0.481452 33 31 28
4.01328 -2.07513 -4.63261 -0.811971 0.47124 0.344436 75 64 17
3.86518 -2.04403 -4.49645 -0.787273 0.511133 0.344882 75 63 16
3.72057 -2.00751 -4.37518 -0.739346 0.583469 0.336053 77 66 18
-10.9752 1.13291 -3.14076 0.258935 0.169419 0.950921 177 155 112
-17.9809 2.56834 -2.84978 0.62684 0.778062 -0.0411285 74 63 44
-5.79687 -0.809432 -7.64372 0.800768 -0.402958 0.443165 194 170 126
-7.59789 0.298254 -4.60303 -0.161191 -0.0613329 0.985016 137 133 145
-7.81364 0.373969 -4.57398 0.100486 0.619743 0.778345 93 92 105
-7.74442 0.38786 -4.53231 0.494984 0.590953 0.636998 79 78 91
-12.1488 1.70827 -2.42259 0.251783 0.655834 0.711679 161 141 111
-20.3772 2.62399 -5.62807 0.861433 -0.247209 -0.443645 76 64 44
6.71031 -2.28337 -4.17481 -0.87519 0.267169 0.403315 99 85 35
6.68964 -2.26462 -4.12243 -0.83851 0.37585 0.39451 98 84 35
6.59302 -2.41323 -4.80156 -0.932794 0.221384 0.284402 101 86 38
6.63531 -2.53427 -5.12165 -0.960306 0.252571 0.118405 113 96 45
