ply
format ascii 1.0
element vertex 736
property float x
property float y
property float z
property float nx
property float ny
property float nz
property uchar diffuse_red
property uchar diffuse_green
property uchar diffuse_blue
end_header
-12.9112 2.48343 -6.73689 -0.750102 -0.191139 0.633097 70 59 48
-12.9376 2.42296 -6.67133 -0.755083 -0.176148 0.631523 53 42 33
-12.6944 1.81451 -6.17221 -0.73721 0.149864 0.658834 21 18 13
-12.6822 1.79753 -6.16067 -0.791986 0.222368 0.568604 20 16 10
-12.8144 2.11283 -6.35476 -0.710788 -0.284076 0.643491 38 30 24
-12.8548 2.23857 -6.4378 -0.782282 -0.622496 0.0230905 148 135 118
-12.8645 2.26012 -6.4696 -0.86604 -0.371618 0.334478 151 139 120
-12.8912 2.32811 -6.51394 -0.78982 -0.417596 0.449218 70 60 43
-12.927 2.50034 -6.68071 -0.753185 -0.33061 0.568691 110 96 77
-13.0574 2.55927 -6.57755 -0.660472 -0.498053 0.56189 128 111 83
-13.0641 2.53767 -6.54757 -0.466239 -0.842075 0.271166 137 121 93
-12.6333 1.74806 -6.09593 -0.818869 0.234155 0.524046 22 19 10
-12.6808 1.89127 -6.17238 -0.79665 0.154757 0.584293 34 29 24
-12.7961 2.0849 -6.30992 -0.716462 -0.235216 0.656776 28 23 17
-12.8168 2.23187 -6.39045 -0.649912 -0.759908 -0.0123843 146 132 115
-12.8654 2.26612 -6.36905 -0.664249 -0.612713 0.428202 70 60 43
-12.8944 2.28171 -6.41321 -0.342176 -0.900837 0.267223 52 44 28
-12.8635 2.45692 -6.58253 -0.857799 -0.443043 0.260565 67 56 43
-12.8723 2.49155 -6.63924 -0.84408 -0.344808 0.410654 85 72 59
-12.9439 2.5229 -6.62765 -0.712239 -0.485703 0.506762 128 112 87
-12.6471 1.8233 -6.09931 -0.758279 0.18395 0.62544 23 19 14
-12.7092 2.03147 -6.21728 -0.754433 0.149771 0.639062 71 65 53
-12.7472 2.06399 -6.26402 -0.742985 -0.109738 0.660251 28 23 14
-12.7714 2.16649 -6.30681 -0.668953 -0.238274 0.70408 66 57 50
-12.859 2.31969 -6.35697 -0.886202 -0.32306 0.332083 53 44 29
-12.8869 2.33766 -6.40593 -0.823702 -0.520468 0.225007 62 53 37
-12.881 2.48787 -6.52287 -0.8753 -0.395186 0.278706 120 105 82
-12.8872 2.44522 -6.46028 -0.723352 -0.642897 0.251886 109 94 74
-12.8824 2.52521 -6.58715 -0.818301 -0.547822 0.173998 123 108 84
-12.7309 2.14291 -6.26144 -0.647489 -0.0731214 0.758559 34 27 20
-12.7783 2.2392 -6.30576 -0.662136 -0.0662019 0.746454 135 125 109
-12.8833 2.52304 -6.46678 -0.845783 -0.521865 0.110944 129 113 89
-12.9038 2.55318 -6.52627 -0.815765 -0.577778 0.0264621 131 115 88
-12.6836 2.08776 -6.17825 -0.772433 -0.172603 0.611192 37 31 23
-12.7273 2.21956 -6.26201 -0.672869 -0.262808 0.691505 114 103 89
-12.8539 2.50481 -6.39365 -0.719223 -0.593057 0.361941 125 109 84
-12.8658 2.49715 -6.39679 -0.704761 -0.680146 0.201773 125 109 84
-12.6884 2.18685 -6.2167 -0.765347 -0.0149624 0.643444 60 52 42
-12.68 2.20003 -6.21768 -0.698346 -0.243875 0.672932 71 63 52
-12.7572 2.3529 -6.33525 -0.797521 -0.54737 0.253668 44 37 25
-12.7982 2.41491 -6.33631 -0.858673 -0.41693 0.298077 85 73 57
-12.7898 2.45603 -6.39206 -0.875645 -0.460646 0.145089 101 88 70
-12.8225 2.47972 -6.33537 -0.704183 -0.697972 0.130232 122 107 82
-12.8607 2.61178 -6.46168 -0.729945 -0.682813 0.0307761 136 120 91
-12.6466 2.17447 -6.17338 -0.777361 -0.286556 0.559997 45 37 28
-12.6932 2.27086 -6.21674 -0.720055 -0.290857 0.630019 122 113 98
-12.7472 2.39812 -6.27342 -0.973851 -0.113987 0.196523 68 56 42
-12.8556 2.55177 -6.3308 -0.513736 -0.295502 0.805453 123 108 80
-12.6597 2.24503 -6.17256 -0.750271 -0.257509 0.608919 111 102 91
-12.7019 2.37482 -6.20613 -0.772152 -0.448808 0.449835 52 44 30
-12.7554 2.47231 -6.26977 -0.673802 -0.267063 0.688961 109 94 74
-12.7487 2.43781 -6.21919 -0.609823 -0.348257 0.711922 101 88 70
-12.8776 2.49764 -6.1355 -0.872042 -0.132908 0.47104 134 118 90
-13.496 3.92137 -6.74352 0.0509368 -0.959808 0.275995 14 10 6
-12.59 2.0692 -5.97205 -0.573272 -0.175464 0.800357 27 22 13
-12.6523 2.36409 -6.16026 -0.893842 -0.301354 0.332011 67 57 40
-12.5651 2.03219 -5.90601 -0.959022 -0.0690602 0.274785 50 44 28
-13.1104 2.6277 -5.64457 -0.715878 -0.470482 0.515912 133 116 88
-13.4232 2.76189 -5.43956 -0.866571 -0.213286 0.45118 119 103 77
-13.1983 2.60671 -5.46773 -0.852236 -0.48524 0.195541 135 119 91
-13.0633 2.61336 -5.5825 -0.776308 -0.626973 -0.0651956 129 114 86
-12.5581 2.34086 -5.91998 -0.629449 -0.124534 0.766998 33 25 17
-12.576 2.29081 -5.86344 -0.73201 -0.382038 0.564099 38 30 19
-12.9892 4.0427 -6.33186 0.00316301 -0.999491 -0.0317414 54 39 24
-13.0179 4.09772 -6.26413 0.0597548 -0.93959 0.337046 65 49 33
-12.3854 2.15022 -5.63101 -0.754409 -0.318468 0.573973 61 51 41
-12.9743 4.06379 -6.23883 -0.312381 -0.941978 0.122861 58 43 27
-13.5043 4.59083 -5.96721 -0.674802 -0.726386 0.130403 80 65 46
-12.4562 2.36096 -5.62865 -0.895308 -0.0258316 0.444697 75 63 48
-12.6811 2.63208 -5.55982 -0.65252 -0.660757 0.370969 132 117 88
-13.4308 4.50314 -5.91276 -0.749651 -0.181182 0.63655 62 49 32
-13.4398 4.67217 -5.97471 -0.678512 -0.730816 0.0743592 79 65 48
-16.4755 4.40849 -2.2482 0.230375 -0.54498 -0.806179 86 75 66
-13.3418 4.4687 -5.91797 -0.669873 -0.194734 0.716484 50 40 27
-12.619 4.23039 -6.31271 -0.38919 -0.645355 0.657304 51 38 24
-13.2076 4.62955 -5.85449 -0.609507 -0.158564 0.776762 53 42 29
-13.2257 4.61667 -5.85704 -0.609007 -0.159232 0.777017 53 42 29
-12.3318 2.28315 -5.45791 -0.964489 -0.253145 0.0753537 39 33 19
-12.652 4.19412 -6.16356 -0.151703 -0.977946 0.143557 56 42 26
-13.2863 4.92637 -5.92099 -0.0640506 -0.930662 0.36023 108 90 63
-12.8745 2.63115 -4.97026 -0.743428 -0.646612 -0.170904 133 117 89
-13.1938 4.61348 -5.75171 -0.572518 -0.604919 0.55344 56 46 32
-12.4459 4.25132 -6.20351 -0.520633 -0.830513 0.197965 58 44 28
-12.813 2.61811 -4.8892 -0.674574 -0.738207 -0.000675112 128 111 84
-18.9493 -0.467075 -15.0651 -0.417993 -0.530934 0.737151 85 73 54
-20.273 -0.011388 -14.8311 -0.0536518 -0.0157608 0.998435 154 138 118
-20.2084 -0.0120133 -14.8318 0.0728279 0.114199 0.990785 146 132 109
-20.3324 -0.00942871 -14.8683 -0.507487 0.0519024 0.860095 181 165 144
-20.3026 -0.0616697 -14.8489 -0.345123 0.076649 0.935422 163 148 127
-20.1688 -0.0137321 -14.9505 0.759275 -0.162013 0.63028 146 131 108
-20.2716 0.0989447 -14.8409 0.0115446 0.0356569 0.999297 152 136 116
-20.2064 0.0984397 -14.8397 0.0769168 0.276687 0.957877 147 133 110
-20.2411 0.0437466 -14.8321 0.0936104 0.0723443 0.992977 148 133 112
-20.3048 0.0435525 -14.8281 -0.405886 0.00956362 0.913874 165 150 129
-20.3354 0.104189 -14.8823 -0.530517 0.143797 0.835389 184 168 147
-20.24 0.155935 -14.8336 0.0939955 -0.00333098 0.995567 147 133 112
-20.2046 0.214787 -14.85 0.265263 -0.0280881 0.963767 146 132 110
-20.3054 0.156388 -14.8332 -0.345247 -0.0180787 0.938338 167 152 131
-20.2761 0.21286 -14.8379 -0.16491 0.122902 0.978621 153 139 118
-20.3363 0.215549 -14.8895 -0.529084 0.149468 0.835302 184 168 147
-20.3375 0.213612 -14.8571 -0.543563 -0.0693378 0.836499 184 169 147
-23.747 2.25608 -6.76255 0.357595 -0.769685 0.528877 125 108 83
-20.3083 0.266205 -14.8365 -0.368823 -0.0561224 0.927804 169 154 132
-20.238 0.273431 -14.8184 -0.118268 0.138596 0.983262 149 135 114
-23.6261 1.94423 -9.42287 -0.0780548 -0.506099 0.858936 169 151 135
-23.5255 1.93583 -9.3769 -0.0846459 -0.492118 0.866403 168 151 134
-21.2207 0.554516 -18.1711 0.864051 -0.12486 0.487674 125 95 50
-24.7106 2.48725 -9.55373 0.1101 -0.360654 0.926179 162 144 126
-19.0156 0.244739 -14.9337 -0.533635 -0.285375 0.796112 103 90 68
-18.9998 0.265923 -14.8963 -0.393763 -0.0436065 0.918177 102 89 68
-19.0511 0.257974 -15.0164 -0.15279 -0.0940544 0.983773 107 94 71
-21.2382 0.729722 -18.2001 0.815909 -0.28461 0.503278 128 97 50
-23.2644 2.10244 -9.27564 0.22253 -0.779071 0.586113 162 144 125
-23.2722 2.13123 -9.24311 0.107993 -0.814404 0.570162 159 142 124
-23.2666 2.0968 -9.24426 0.111975 -0.778222 0.617925 160 143 125
-23.2904 2.16955 -9.2417 0.161437 -0.592119 0.789514 159 142 124
-23.2904 2.16955 -9.2417 0.161437 -0.592119 0.789514 159 142 124
-23.4537 2.22035 -9.24659 0.111235 -0.864808 0.489627 159 142 123
-24.6291 2.55345 -9.58969 0.151064 -0.641992 0.751682 160 144 125
-24.6156 2.55338 -9.49514 0.290608 -0.283567 0.913858 155 138 118
-24.8068 2.59079 -9.59704 0.0866788 -0.421038 0.902892 153 137 120
-24.8383 2.59754 -9.5538 0.267844 -0.271883 0.924305 153 137 118
-24.874 2.65043 -9.61443 0.328343 0.124662 0.936296 153 137 119
-19.7289 0.643337 -14.8672 0.710205 -0.0889891 0.698348 151 135 114
-19.877 0.642264 -14.7268 0.663781 0.00863432 0.747877 154 138 117
-23.1767 2.16598 -9.21531 0.13548 -0.604904 0.784688 158 142 123
-23.1974 2.17327 -9.24884 0.163252 -0.462175 0.871632 159 142 124
-23.1849 2.20606 -9.21691 0.118986 -0.678655 0.724755 157 141 122
-23.1974 2.17327 -9.24884 0.163252 -0.462175 0.871632 159 142 124
-23.2977 2.20893 -9.23317 0.102907 -0.857875 0.503449 158 142 122
-23.3031 2.21151 -9.23515 0.108861 -0.902239 0.41727 159 142 124
-23.3064 2.20998 -9.23975 0.106285 -0.88471 0.453863 159 142 124
-23.2977 2.20893 -9.23317 0.102907 -0.857875 0.503449 158 142 123
-23.3031 2.21151 -9.23515 0.108861 -0.902239 0.41727 159 142 124
-23.3708 2.2076 -9.26007 0.110874 -0.85275 0.510416 158 141 123
-23.2879 2.23662 -9.21995 0.110224 -0.806651 0.58066 155 139 120
-23.3084 2.20844 -9.12387 0.112182 -0.8562 0.504318 153 136 116
-23.4136 2.21754 -9.2036 0.038466 -0.487308 0.872383 159 143 124
-23.2933 2.22133 -9.15483 0.108342 -0.877344 0.467472 155 139 119
-23.2909 2.21948 -9.15417 0.110126 -0.88491 0.452557 155 139 119
-23.379 2.26099 -9.20997 0.106517 -0.888536 0.446271 156 139 120
-23.3734 2.25841 -9.20862 0.108327 -0.899143 0.424037 156 139 120
-23.379 2.26099 -9.20997 0.106517 -0.888536 0.446271 156 139 120
-23.3734 2.25841 -9.20862 0.108327 -0.899143 0.424037 156 139 120
-24.6369 2.59745 -9.54904 0.410578 -0.487177 0.770769 156 140 122
-24.6924 2.65151 -9.4743 0.0354123 -0.434182 0.900129 145 129 112
-24.9112 2.75476 -9.52303 0.346344 -0.280996 0.895035 139 123 105
-24.9149 2.7462 -9.52825 0.245961 -0.255666 0.934954 140 125 106
-24.9942 2.76334 -9.59404 0.262467 -0.270007 0.926395 141 125 107
-15.4063 -0.281481 -9.30007 -0.566105 0.441258 0.696288 166 155 138
-15.4154 -0.312127 -9.27416 -0.739122 -0.137685 0.659349 56 49 37
-15.7447 -0.192113 -9.79605 -0.676291 -0.292248 0.676181 74 65 48
-17.7126 0.177467 -13.8092 -0.281986 -0.0487224 0.958181 103 91 73
-19.8631 0.735786 -14.7441 0.668558 -0.0685392 0.740495 154 139 118
-19.8785 0.780455 -14.7978 0.705067 -0.137052 0.695771 156 140 120
-19.8637 0.729423 -14.7609 0.709339 -0.152678 0.688133 154 139 118
-19.7985 0.871428 -13.8757 -0.528277 0.113711 0.841424 165 149 133
-23.5556 2.32978 -9.82898 0.959675 0.00200084 -0.281104 173 153 134
-23.0431 2.22132 -9.17655 0.108489 -0.705887 0.699967 156 140 120
-22.9964 2.21199 -9.13854 0.0967238 -0.844673 0.526471 151 136 115
-23.037 2.23408 -9.177 0.0939733 -0.874345 0.47612 154 138 117
-23.1175 2.27832 -9.22033 0.0817536 -0.870164 0.485933 157 141 122
-23.037 2.23408 -9.177 0.0939733 -0.874345 0.47612 154 138 117
-23.1175 2.27832 -9.22033 0.0817536 -0.870164 0.485933 157 141 122
-23.1534 2.2316 -9.2372 0.103561 -0.651409 0.751626 160 143 126
-23.1175 2.27832 -9.22033 0.0817536 -0.870164 0.485933 157 141 122
-23.1224 2.21782 -9.19916 0.111593 -0.705665 0.699703 157 140 121
-23.0091 2.2479 -9.11206 0.112138 -0.699031 0.706245 152 136 116
-23.0473 2.20396 -9.14643 0.14115 -0.500407 0.854207 157 140 121
-23.0117 2.247 -9.13436 0.0935458 -0.846198 0.524594 150 134 114
-23.3514 2.3479 -9.18988 0.155677 -0.256122 0.954026 159 142 124
-23.6211 2.36898 -9.24262 0.106237 -0.758286 0.643208 157 140 121
-24.6037 2.67121 -9.554 0.204071 -0.179939 0.962277 153 137 120
-24.5626 2.7109 -9.48171 0.279523 -0.360801 0.889769 144 129 111
-24.8969 2.83155 -9.51871 0.224793 -0.398968 0.888984 135 120 101
-17.7435 0.227243 -13.8105 -0.220828 -0.181537 0.958269 111 99 79
-22.9989 2.27135 -9.13353 0.167638 -0.451442 0.876412 153 137 117
-23.1852 2.31537 -9.25998 0.402934 -0.521328 0.752237 154 138 118
-23.0563 2.30139 -9.1208 0.105513 -0.717814 0.688194 152 136 116
-23.0295 2.25837 -9.14405 0.0951199 -0.799443 0.593163 153 137 117
-22.9853 2.27214 -9.10279 0.10887 -0.700329 0.705469 151 135 115
-23.109 2.35875 -9.10978 0.188689 -0.348617 0.918075 151 135 115
-23.1596 2.31104 -9.15554 0.204916 -0.318695 0.925442 152 136 116
-23.1582 2.35627 -9.09829 0.163977 -0.266557 0.949768 153 137 117
-23.2163 2.33758 -9.117 0.12791 -0.31323 0.941024 154 138 118
-23.3311 2.35866 -9.15429 0.139697 -0.29184 0.94621 155 138 119
-24.7894 2.89193 -9.43986 0.448984 -0.333837 0.828834 121 106 86
-24.8105 2.88248 -9.39177 0.621385 -0.460357 0.633997 108 93 74
-23.0368 2.35202 -9.17214 0.164068 -0.373164 0.913143 155 139 120
-23.0455 2.36074 -9.09089 0.0895091 -0.723292 0.684717 151 135 115
-23.0689 2.36859 -9.12412 0.198331 -0.356543 0.912985 150 134 114
-23.0994 2.43759 -9.14052 0.125757 -0.521442 0.843969 149 133 112
-22.9932 2.36637 -9.07269 0.122217 -0.723863 0.679033 146 130 109
-23.126 2.41259 -9.08422 0.0180037 -0.634073 0.773064 151 136 116
-24.767 2.92752 -9.38195 0.254555 -0.695394 0.672033 108 94 75
-15.4598 -0.111492 -9.47612 -0.409982 0.044456 0.911009 153 138 114
-15.9743 0.0532692 -10.573 -0.654225 -0.120843 0.746583 129 117 95
-19.4745 1.03124 -15.1216 -0.266987 -0.301589 0.915293 166 148 133
-23.0306 2.43688 -9.09014 0.1202 -0.544914 0.829832 149 133 113
-22.9999 2.43064 -9.11163 0.166586 -0.385416 0.907581 151 135 115
-23.028 2.43326 -9.10214 0.309488 -0.111675 0.944323 147 131 110
-23.7193 2.81751 -7.04984 0.796572 -0.598912 0.0823244 112 99 77
-23.6253 2.7566 -9.88622 0.915016 -0.215112 -0.341282 163 145 128
-23.0301 2.51423 -9.14881 0.156606 -0.389858 0.907461 152 136 116
-22.9962 2.53388 -9.1645 0.17143 -0.332743 0.927305 152 136 116
-23.6488 2.83527 -7.05619 0.769172 -0.246264 0.589686 110 96 76
-15.8622 0.0989572 -10.5206 -0.375075 -0.700665 0.606949 144 131 111
-19.2787 1.17402 -15.1051 0.428926 -0.287293 0.856437 142 129 112
-23.5007 2.74274 -9.81647 0.916562 -0.229548 -0.327447 164 146 129
-23.5634 2.76445 -9.80085 0.878826 -0.207015 -0.429895 161 144 125
-23.0349 2.59416 -9.149 0.17811 -0.231547 0.95638 152 136 117
-23.4786 2.75502 -9.3282 0.183045 -0.335474 0.924095 153 137 118
-14.8512 -0.121593 -9.29969 -0.537534 0.084891 0.838958 42 37 26
-14.8618 -0.123121 -9.29782 -0.520881 0.237664 0.819877 42 37 26
-14.897 -0.0970659 -9.32788 -0.72438 0.00702693 0.689366 56 47 37
-14.8937 -0.120911 -9.36371 -0.537305 0.279281 0.795805 44 37 27
-19.2851 1.2772 -15.0691 0.607968 -0.210955 0.765423 139 127 109
-23.1096 2.73417 -9.20466 0.367821 -0.155895 0.916736 148 132 111
-18.6092 1.23574 -14.8477 -0.288486 -0.392945 0.873138 18 63 100
-18.6149 1.19808 -14.9103 0.425279 -0.100686 0.899445 18 59 97
-20.5095 1.84487 -14.0923 0.788589 -0.351262 0.50472 209 192 167
-26.4187 3.9704 -14.7243 0.0628766 -0.763794 0.64239 169 155 132
-23.7925 3.08601 -10.0984 0.973076 -0.0495896 -0.225088 166 147 128
-23.8102 3.11244 -9.97278 0.892024 -0.318572 -0.320634 165 148 128
-18.6094 1.37243 -14.8182 0.0509637 -0.480895 0.875296 110 124 132
-19.3649 1.63745 -15.0971 0.641686 -0.00818435 0.766924 169 154 139
-20.528 2.09011 -13.9537 0.60532 -0.28377 0.743682 200 183 161
-20.5567 2.02971 -13.9566 0.704145 -0.347823 0.619031 202 185 161
-20.5091 2.01748 -13.9492 0.691098 -0.514305 0.507813 194 176 155
-20.5159 2.00207 -13.9243 0.76356 -0.395929 0.510115 196 178 157
-20.556 2.03089 -13.9551 0.698883 -0.349071 0.624269 202 185 161
-26.0679 4.06261 -14.9681 -0.0278781 -0.903344 0.428009 167 152 131
-26.1721 4.02561 -14.9338 0.0553813 -0.863572 0.501175 169 154 131
-26.1858 4.09782 -14.7565 0.360923 -0.392879 0.845802 163 149 127
-26.2816 4.04167 -14.8493 0.156707 -0.842745 0.514999 169 153 131
-26.4063 4.06317 -14.7798 0.148407 -0.832543 0.533711 167 153 130
-26.2733 4.09099 -14.6928 0.363193 -0.342373 0.866529 164 151 129
-26.4249 4.04952 -14.6103 0.150398 -0.302985 0.941053 169 154 133
-26.5844 4.21737 -14.6178 0.0547008 0.352016 0.934394 146 134 116
-26.5844 4.21737 -14.6178 0.0547008 0.352016 0.934394 146 134 116
-26.5974 4.22208 -14.63 0.0615177 0.357654 0.931826 146 134 116
-26.6566 4.14811 -14.5114 0.138826 0.22201 0.965111 163 149 127
-26.66 4.23841 -14.4447 0.088385 0.215051 0.972595 103 95 76
-23.8667 3.15683 -10.0901 0.965012 -0.119457 -0.233412 165 147 128
-24.0594 3.26614 -8.64942 0.916676 -0.294304 -0.270352 128 115 89
-20.5519 2.10599 -13.8684 0.41705 -0.408165 0.812078 201 184 161
-20.5519 2.10599 -13.8684 0.41705 -0.408165 0.812078 201 184 161
-26.0561 4.20957 -14.7757 0.478311 -0.0478705 0.876885 88 81 66
-25.959 4.08901 -14.7648 0.212073 0.49287 0.843863 159 147 126
-26.165 4.21037 -14.7195 0.556752 0.0748314 0.827301 94 87 71
-26.1085 4.10313 -14.7476 0.393339 -0.169458 0.903642 161 149 127
-26.28 4.26735 -14.6729 0.53461 0.00873515 0.845054 44 40 33
-26.3759 4.33057 -14.6187 0.859068 -0.0867596 0.504455 39 37 31
-26.3469 4.1832 -14.5756 0.298715 0.225104 0.927415 121 112 95
-26.5502 4.27914 -14.5314 0.138276 0.221796 0.965239 54 49 36
-24.1133 3.34568 -8.71128 0.842463 -0.197164 -0.501381 132 118 92
-14.6922 0.0781869 -8.95413 -0.79374 0.243421 0.557425 99 92 77
-14.6813 0.0619664 -8.99281 -0.788105 0.156496 0.595315 44 38 27
-14.784 0.0706364 -9.17587 -0.695417 0.339512 0.633346 104 95 84
-18.5105 1.53761 -14.689 -0.0701157 0.00548096 0.997524 126 130 130
-18.573 1.54206 -14.7078 -0.0490953 -0.0225516 0.998539 126 109 87
-25.931 4.20445 -14.8071 0.369422 -0.137392 0.919049 70 64 51
-25.978 4.30627 -14.7679 0.410965 -0.223179 0.883911 39 38 32
-25.9294 4.28113 -14.754 0.309799 0.178944 0.933811 41 39 30
-25.9281 4.2747 -14.7311 0.19261 0.157128 0.968614 40 38 31
-26.1061 4.31434 -14.7411 0.568002 -0.0525703 0.821347 40 38 31
-26.1632 4.32946 -14.7012 0.492664 -0.291607 0.819907 41 40 33
-26.2555 4.44195 -14.749 0.669308 0.540208 0.510101 44 43 37
-26.3536 4.44113 -14.6556 0.369685 0.208115 0.90555 45 43 37
-26.4701 4.51325 -14.6595 0.634258 0.552999 0.540287 57 54 47
-26.5865 4.50344 -14.6979 0.138832 0.221567 0.965212 44 41 36
-24.1371 3.46801 -8.81678 0.991747 -0.088577 -0.092694 123 109 83
-14.6274 0.0853651 -8.87788 -0.568255 0.370303 0.734821 108 98 83
-14.6806 0.112253 -8.99281 -0.795431 0.250168 0.552002 135 125 102
-14.7099 0.092122 -9.02878 -0.803459 0.220674 0.552952 119 111 93
-16.2857 0.842922 -12.3519 0.514742 -0.290298 0.806702 92 81 61
-16.2428 0.835405 -12.3147 -0.159809 -0.192389 0.968219 79 70 53
-16.283 0.783144 -12.2845 -0.204086 -0.19873 0.958569 81 71 53
-16.2436 0.777593 -12.2468 -0.235893 -0.261422 0.935956 74 65 49
-19.6007 2.16599 -15.2626 0.297366 -0.609718 0.734723 156 141 120
-25.836 4.3077 -14.7941 0.996344 0.0691767 -0.0501384 39 39 32
-25.9941 4.45878 -14.8772 0.324267 0.196281 0.925378 56 53 46
-26.15 4.46317 -14.8403 0.379264 0.261341 0.887615 48 45 39
-26.1696 4.4208 -14.6759 0.347636 0.533148 0.771299 50 48 41
-26.3728 4.59523 -14.7868 0.457867 0.241787 0.85551 82 77 65
-26.2058 4.57094 -14.3829 0.979616 0.196903 -0.0397786 95 86 69
-26.7123 4.67854 -14.7542 0.734612 0.256329 0.628205 77 71 60
-14.5606 0.111696 -8.83803 -0.537397 0.183675 0.823085 150 138 121
-14.6732 0.143659 -9.03038 -0.812827 0.155268 0.561431 96 85 64
-19.5356 2.16974 -15.2529 -0.269446 -0.303033 0.914095 153 138 118
-25.623 4.63987 -19.1968 0.354378 0.398435 0.84597 162 148 128
-24.7916 4.09989 -15.3009 0.465945 0.146571 0.872589 93 84 70
-25.9369 4.59746 -14.9384 0.487003 0.204666 0.849082 90 82 67
-26.0255 4.55353 -14.8245 0.275913 0.217092 0.936345 88 80 68
-26.1272 4.69836 -14.8523 0.141327 0.214748 0.96639 96 85 69
-26.1089 4.66915 -14.8234 0.0536396 0.16265 0.985225 96 85 69
-26.2657 4.61786 -14.8823 0.392275 0.221525 0.892775 84 76 65
-26.2556 4.67716 -14.7756 0.0529507 0.164751 0.984913 95 84 68
-26.4017 4.72114 -14.8077 0.934991 0.307907 0.176027 94 84 67
-26.4074 4.70281 -14.7342 0.743169 -0.0832015 0.663911 94 84 68
-26.4457 4.68137 -14.5904 0.199525 0.115562 0.973055 94 84 67
-16.6209 1.11948 -11.6106 -0.454046 -0.249268 0.855399 130 118 106
-25.7067 4.97955 -19.7208 0.906024 -0.272701 0.323658 159 145 125
-26.029 4.6969 -14.9745 0.922106 0.313477 0.226831 94 83 67
-26.6496 5.01714 -15.0151 0.79267 -0.0549479 0.60717 99 88 69
-26.6496 5.01714 -15.0151 0.79267 -0.0549479 0.60717 99 88 69
-26.6474 5.07165 -15.0095 0.889482 0.10118 0.445628 99 88 69
-26.6973 4.98764 -14.889 0.761597 0.136987 0.633407 101 89 69
-13.9272 -0.0731337 -7.88019 -0.87763 0.236022 0.417205 38 33 23
-15.0447 0.437107 -9.45386 -0.41402 0.245724 0.876474 45 32 17
-16.0098 0.955014 -10.9592 -0.714416 -0.0473738 0.698116 58 48 36
-18.5847 2.17037 -14.6427 0.0369014 -0.387765 0.92102 118 108 95
-19.2588 2.36027 -14.8556 -0.0384842 -0.128466 0.990967 135 123 106
-25.6006 5.02261 -19.7951 0.618589 -0.158026 0.769659 157 144 124
-13.8657 -0.0304432 -7.91202 -0.765501 0.335686 0.548929 103 91 77
-14.584 0.334123 -9.06147 -0.508532 0.261581 0.820348 42 30 19
-16.8247 1.40601 -12.2736 0.0159411 0.0158443 0.999747 36 33 25
-16.8669 1.41169 -12.282 0.0649926 -0.0800937 0.994666 38 38 28
-16.7908 1.39716 -12.26 -0.0752535 0.0602723 0.995341 37 33 25
-16.8446 1.42262 -12.2222 -0.386949 0.359216 0.849255 42 40 31
-18.4825 2.24582 -14.5907 0.17708 -0.558366 0.810476 135 118 111
-18.6163 2.23772 -14.5712 0.122794 -0.561429 0.818364 150 136 125
-24.4854 4.10286 -9.60701 0.346158 -0.0995865 0.932876 142 126 106
-23.8009 3.80013 -8.44873 0.724517 -0.560652 -0.400929 112 97 73
-13.77 -0.0422909 -7.70363 -0.74095 0.192837 0.643279 64 54 44
-14.5012 0.345536 -9.02168 -0.790202 0.0641579 0.609479 41 29 16
-14.9597 0.590143 -9.45776 -0.742758 -0.288311 0.604308 41 32 22
-18.4833 2.30411 -14.5427 0.150392 -0.612088 0.776357 61 45 44
-18.5494 2.30672 -14.4892 0.0983163 -0.772782 0.62701 72 60 57
-24.3001 5.23159 -21.3441 0.921901 -0.338069 0.189232 150 138 119
-25.4631 5.4083 -20.0423 0.661181 -0.179022 0.728554 38 36 30
-24.4726 4.18727 -9.67977 0.346926 -0.086785 0.933869 145 130 108
-13.6835 -0.0235212 -7.6408 -0.69616 -0.127443 0.706484 49 43 35
-13.8423 0.0331662 -7.90675 -0.913334 0.0904509 0.397039 63 53 40
-14.5746 0.464924 -9.06313 -0.764601 0.318889 0.560086 121 91 34
-14.554 0.419588 -9.01536 -0.509307 0.0684168 0.857861 147 115 57
-14.6377 0.47493 -9.13565 -0.839661 -0.0271785 0.542431 92 65 22
-14.7239 0.540545 -9.2009 -0.726406 -0.487233 0.484705 35 27 16
-24.3021 5.38184 -21.227 0.651791 -0.726239 0.218507 53 47 40
-25.4 5.68416 -19.7553 0.909407 -0.188861 0.370555 84 76 58
-24.6718 4.45922 -9.96572 0.874072 0.278535 0.398016 151 135 114
-24.5229 4.33137 -9.78822 0.441505 0.0161694 0.897113 149 134 112
-24.5229 4.33137 -9.78822 0.441505 0.0161694 0.897113 149 133 112
-13.7951 0.0346425 -7.75646 -0.666294 0.561164 0.491068 61 53 42
-13.8695 0.0842739 -7.95328 -0.835939 -0.0099276 0.548732 32 28 20
-14.6878 0.576142 -9.1427 -0.570672 0.226064 0.789448 56 48 34
-15.2428 0.780417 -9.47829 -0.778045 0.0675867 0.624563 134 121 100
-15.3051 0.821502 -9.52973 -0.638224 -0.106197 0.762491 173 156 129
-15.2765 0.802 -9.50265 -0.768385 0.0993154 0.632235 158 143 122
-17.8241 2.26058 -13.4192 0.0297864 0.236857 0.971088 131 117 96
-24.4574 4.49454 -10.3785 0.938235 -0.163665 -0.304842 155 139 120
-24.3379 4.4827 -10.305 0.958868 -0.194055 -0.20716 155 140 120
-24.5822 4.59128 -10.552 0.883325 -0.200371 -0.423779 157 141 122
-24.6863 4.52452 -9.91581 0.479526 0.0478606 0.876222 147 131 110
-24.6863 4.52452 -9.91581 0.479526 0.0478606 0.876222 147 131 110
-24.7614 4.56592 -9.85123 0.709083 0.217545 0.670728 148 132 111
-13.8613 0.158217 -7.95063 -0.837044 -0.0606553 0.543763 30 27 21
-14.6827 0.605739 -9.08699 -0.664955 -0.0638959 0.744145 28 23 14
-14.6953 0.630014 -9.07628 -0.631563 -0.0100143 0.77526 27 24 18
-14.6977 0.6295 -9.07611 -0.61383 -0.0234474 0.78909 27 24 18
-14.6977 0.6295 -9.07611 -0.61383 -0.0234474 0.78909 27 24 18
-14.6697 0.621424 -9.02354 -0.469182 0.16833 0.86691 25 21 13
-14.9033 0.707473 -9.41362 -0.586413 0.428022 0.68769 38 34 21
-15.2465 0.845518 -9.46205 -0.791234 -0.0417133 0.610089 86 77 62
-15.2236 0.86843 -9.43277 -0.791037 -0.020377 0.611429 52 47 34
-15.2939 0.9106 -9.53164 -0.786005 -0.0278658 0.617592 172 156 132
-15.2943 0.86759 -9.53126 -0.771243 0.0500439 0.634571 173 156 130
-15.4606 1.036 -9.90693 -0.737086 -0.375582 0.56182 169 153 129
-24.823 4.70891 -10.0085 0.259765 -0.0809107 0.962276 152 136 116
-24.9041 4.74635 -9.9254 0.435335 0.0481309 0.898981 143 128 108
-24.8967 4.74617 -9.92503 0.43775 0.0480836 0.89781 144 128 108
-13.3332 -0.0965866 -7.19048 -0.843324 0.0697812 0.532855 56 46 35
-13.4775 -0.0159041 -7.43667 -0.800136 -0.347107 0.489181 106 96 76
-13.7809 0.155961 -7.73403 -0.803448 0.407014 0.434525 31 27 20
-13.8891 0.220344 -7.95568 -0.90902 0.010898 0.41661 59 51 40
-15.2934 0.997904 -9.53276 -0.780416 -0.00176257 0.625258 172 154 130
-15.2873 0.995099 -9.52063 -0.746487 -0.0207636 0.665075 172 155 131
-15.2933 0.954103 -9.53275 -0.786102 -0.0324124 0.617247 171 154 130
-17.4174 2.27695 -13.2928 0.357856 -0.558082 0.748654 90 82 67
-17.4731 2.2806 -13.2475 0.287028 -0.513304 0.808785 67 60 48
-18.1711 2.65455 -13.7466 0.430398 -0.797575 0.422647 34 30 22
-19.6413 3.41164 -14.6737 0.103169 -0.96992 0.220481 111 96 79
-19.6585 3.38965 -14.5319 0.0818526 -0.967965 0.237368 120 104 87
-24.4713 4.76409 -10.3587 0.970497 -0.097682 -0.220438 154 139 118
-24.474 4.76724 -10.3607 0.96645 -0.107515 -0.233272 154 139 118
-24.4526 4.76198 -10.2303 0.273978 -0.0359341 0.961065 152 137 117
-24.5856 4.77538 -10.1573 0.243757 -0.0721634 0.967148 151 135 115
-24.6575 4.71857 -10.1007 0.209842 -0.0887059 0.973703 150 134 113
-24.7351 4.84426 -10.0794 0.445621 -0.367608 0.816264 150 133 112
-25.0371 4.91893 -9.83357 0.317288 -0.380714 0.868553 126 113 96
-13.3325 -0.0606885 -7.13499 -0.943929 0.0230636 0.329341 57 47 37
-13.4165 0.00883976 -7.40166 -0.675381 -0.569241 0.468856 130 118 99
-13.638 0.0807534 -7.52378 -0.736337 -0.0425977 0.675272 38 32 22
-15.2936 1.04196 -9.53342 -0.785413 -0.0285215 0.618315 169 153 129
-15.473 1.21295 -9.93343 -0.751557 -0.341564 0.564354 125 113 93
-15.6817 1.29216 -10.2874 -0.45854 -0.521168 0.719809 142 129 113
-15.6928 1.30066 -10.3265 -0.423743 -0.524582 0.738414 134 121 105
-15.7656 1.30944 -10.3156 -0.436071 -0.774773 0.457787 50 41 29
-17.8688 2.56479 -13.3109 -0.290293 -0.444783 0.847289 126 109 85
-24.6547 4.84183 -10.1209 0.34725 -0.364233 0.864148 151 135 114
-24.981 4.9818 -9.83613 0.426735 -0.556438 0.712934 54 47 36
-24.9337 5.00894 -9.87579 0.317013 -0.442517 0.838857 43 38 30
-13.3448 -0.0123087 -7.19972 -0.895764 0.216531 0.388229 94 84 71
-13.4718 0.0514107 -7.42703 -0.619539 -0.710667 0.333353 51 43 30
-13.7981 0.264223 -7.79389 -0.887398 0.153144 0.434824 144 132 121
-13.8246 0.257255 -7.89519 -0.921636 -0.035594 0.38642 141 129 114
-14.5168 0.772192 -9.12435 -0.74569 -0.18598 0.639811 39 33 24
-15.4514 1.20224 -9.90604 -0.762249 -0.299668 0.573739 109 97 78
-15.4534 1.24125 -9.90585 -0.780247 -0.117759 0.614286 159 144 120
-15.472 1.28503 -9.91008 -0.730621 -0.414495 0.542575 122 108 89
-15.4964 1.2991 -9.94051 -0.764437 -0.263254 0.588501 80 67 50
-15.5618 1.29106 -9.95323 -0.768462 -0.210985 0.604113 56 46 32
-15.9428 1.48762 -10.2714 -0.630966 -0.568925 0.527453 87 76 62
-15.9265 1.47947 -10.2395 -0.531619 -0.702839 0.47265 105 93 75
-17.965 2.77141 -13.1247 -0.359155 0.0688523 0.930735 77 68 56
-19.4276 3.63415 -14.8599 -0.566448 0.027146 0.82365 87 73 61
-20.4897 4.12355 -15.1775 0.120277 -0.25831 0.958546 170 154 134
-23.9239 4.86579 -10.8448 0.426356 -0.533713 0.730322 156 140 120
-23.9666 4.87084 -10.7856 0.431162 -0.558272 0.708824 155 139 120
-24.0458 4.91161 -10.7567 0.696596 -0.433073 0.572016 153 138 119
-24.175 4.88656 -10.7169 0.925892 -0.25798 0.275988 151 136 117
-24.8147 5.15936 -10.6502 0.941788 -0.0674699 -0.329369 144 129 110
-24.7653 5.0029 -10.0012 0.303719 -0.448614 0.840536 52 46 35
-24.8185 5.09584 -9.95733 0.229515 -0.170814 0.958199 35 35 30
-24.91 5.11969 -9.87209 0.204489 -0.158298 0.965984 33 33 29
-24.9335 5.04985 -9.8121 0.516992 -0.581441 0.628209 32 31 28
-13.2572 -0.0621689 -7.01002 -0.868973 -0.114535 0.481423 59 51 39
-14.4761 0.814999 -9.09614 -0.700421 -0.2908 0.651802 77 67 52
-15.4725 1.34735 -9.88427 -0.635477 0.00446811 0.772107 54 47 33
-17.1733 2.46874 -12.3308 -0.240607 -0.612792 0.752725 117 104 84
-23.7649 4.9212 -10.9498 0.845573 -0.530665 -0.0583173 155 139 121
-23.8294 4.89395 -10.8131 0.530417 -0.484442 0.695682 151 137 119
-23.8956 4.96353 -10.719 0.514599 -0.488663 0.704554 109 100 87
-23.8893 4.90324 -10.7679 0.479904 -0.579891 0.658346 150 136 118
-23.9499 4.90735 -10.7195 0.489484 -0.606521 0.626528 148 134 117
-24.8821 5.2695 -10.7946 0.923343 -0.095572 -0.371893 131 118 99
-24.3849 5.04406 -10.3073 0.286875 -0.313313 0.905283 48 43 35
-24.6759 5.13002 -10.0445 0.224221 -0.177943 0.958155 36 36 32
-24.752 5.12562 -10.0044 0.225799 -0.216682 0.94977 36 36 32
-13.5561 0.203251 -7.54336 -0.855125 -0.090497 0.510463 36 31 22
-13.5967 0.23707 -7.53103 -0.941166 0.035496 0.336076 71 63 50
-13.8023 0.394608 -7.96853 -0.579085 -0.0519889 0.813608 24 23 18
-15.2792 1.26643 -9.51987 -0.778892 0.00783142 0.627109 149 133 111
-23.7849 4.95453 -10.8189 0.549052 -0.494567 0.673755 118 107 93
-24.3345 5.13051 -10.2994 0.352637 -0.189855 0.916298 39 37 33
-24.7784 5.28988 -10.0306 0.258105 -0.605986 0.752438 48 45 38
-24.7872 5.30152 -9.98422 0.155774 -0.272443 0.949478 73 68 58
-24.8279 5.3013 -9.97872 0.759097 0.178585 0.626003 60 55 47
-24.8754 5.31369 -9.93484 0.423703 -0.596746 0.681447 65 60 51
-14.3476 0.743678 -8.57707 -0.872084 -0.087851 0.481406 37 33 24
-15.2799 1.31449 -9.51977 -0.783423 -0.0235941 0.621041 149 135 112
-15.2819 1.36591 -9.52468 -0.746144 -0.0194808 0.665499 147 133 110
-16.9282 2.46569 -11.8639 -0.530281 -0.332942 0.779713 109 98 78
-19.4981 3.98727 -14.6248 0.231764 -0.96513 0.121692 108 84 72
-19.4144 4.0105 -14.575 0.226593 -0.966669 0.119191 85 65 50
-23.7677 5.10461 -10.7444 0.717466 -0.15531 0.679059 46 42 36
-23.8479 5.16981 -10.6945 0.538592 -0.0473295 0.841236 43 41 35
-24.7925 5.34785 -9.9214 0.331534 -0.630398 0.701914 124 113 97
-13.3733 0.212237 -7.40809 -0.743566 0.0678891 0.665208 63 53 39
-13.3723 0.212287 -7.40779 -0.743352 0.0511312 0.666943 64 53 39
-14.2855 0.829273 -8.53314 -0.796087 -0.444758 0.410409 122 115 104
-15.3237 1.45816 -9.57126 -0.766686 0.0353465 0.641049 138 124 101
-23.7902 5.28828 -10.7535 0.494546 -0.420241 0.760803 64 59 49
-13.7164 0.465948 -7.76097 -0.909215 -0.246458 0.335539 42 38 33
-13.7792 0.51035 -7.78888 -0.897325 -0.179952 0.403021 119 110 99
-15.3201 1.51033 -9.57254 -0.755759 0.0515304 0.652819 136 122 100
-17.0719 2.66635 -11.3417 0.14645 -0.917926 0.368735 108 97 79
-17.0824 2.66794 -11.349 0.152021 -0.932371 0.327985 105 94 76
-17.1469 2.62494 -11.3789 -0.281488 -0.636574 0.71801 85 76 61
-13.7587 0.517204 -7.72619 -0.915203 -0.112985 0.386831 119 109 97
-14.1441 0.808366 -8.31302 -0.838036 -0.380483 0.39106 106 96 84
-14.138 0.799652 -8.31745 -0.849371 -0.135164 0.510196 89 80 66
-14.1695 0.821227 -8.36884 -0.710315 -0.60537 0.359138 90 81 67
-14.2126 0.874962 -8.36797 -0.701622 -0.617291 0.355921 42 36 26
-14.4025 1.02411 -8.83642 -0.500168 -0.171536 0.848768 70 60 46
-14.65 1.20391 -9.18004 -0.157977 -0.913307 0.375385 115 102 87
-14.712 1.23119 -9.16135 -0.35193 -0.748395 0.562183 84 73 60
-14.7482 1.27443 -9.15591 -0.394856 -0.563078 0.72597 25 20 14
-13.7951 0.575566 -7.77074 -0.907296 -0.163857 0.387254 115 105 92
-14.7904 1.41892 -9.49044 -0.361629 -0.034404 0.931687 61 53 45
-15.8662 2.30161 -11.1146 -0.518185 0.240022 0.820898 186 168 148
-23.6559 5.04435 -8.64707 0.82777 -0.229499 -0.511983 145 129 107
-13.283 0.239877 -7.05479 -0.870955 -0.178969 0.45761 104 95 83
-13.3225 0.267588 -7.00288 -0.707502 -0.500485 0.498954 118 107 95
-13.4298 0.389405 -7.41768 -0.690161 -0.605231 0.396703 40 36 26
-13.5766 0.489195 -7.55475 -0.763459 -0.552648 0.334232 91 84 76
-13.7699 0.616648 -7.72223 -0.912218 -0.0251338 0.408934 33 27 20
-13.8091 0.638256 -7.7062 -0.911414 -0.0643479 0.406429 27 23 17
-13.955 0.795231 -8.03283 -0.742372 -0.575606 0.342872 108 97 80
-14.8606 1.53052 -9.39491 -0.740333 -0.2963 0.603419 130 114 96
-15.8801 2.35775 -10.8883 -0.719067 -0.461239 0.519809 130 119 100
-16.2705 2.58339 -11.1431 -0.461805 -0.718311 0.520352 85 77 60
-16.2318 2.56605 -11.2202 -0.210193 -0.908176 0.361988 107 97 77
-16.2508 2.55569 -11.2005 -0.484476 -0.676791 0.55429 94 84 65
-16.2028 2.54228 -11.1711 -0.207216 -0.909531 0.360299 111 101 80
-16.2192 2.54408 -11.0414 -0.635724 -0.330468 0.6976 78 69 53
-22.1979 5.57099 -12.6004 0.521596 -0.224012 0.823259 204 182 156
-22.2757 5.54784 -12.5251 0.597158 -0.378435 0.707241 204 182 156
-22.3604 5.56415 -12.4863 0.632898 -0.378933 0.675166 203 182 155
-22.4267 5.53464 -12.411 0.431352 -0.795324 0.425905 201 180 154
-22.5118 5.58236 -12.3893 0.571741 -0.503051 0.648114 205 183 158
-14.0222 0.858152 -8.05632 -0.611129 -0.730396 0.30503 54 46 31
-14.834 1.53096 -9.24558 -0.761571 -0.454405 0.462088 119 103 78
-14.8447 1.55649 -9.30141 -0.752955 -0.476517 0.453862 128 112 81
-14.9053 1.56154 -9.35194 -0.773407 -0.436871 0.459333 127 111 79
-22.0263 5.57502 -12.7038 0.907403 -0.374947 0.189828 204 180 154
-22.104 5.58631 -12.6502 0.764089 -0.437557 0.474037 206 182 156
-24.0442 6.13571 -11.3762 0.0111907 -0.057891 0.99826 151 137 119
-12.9094 0.0422721 -6.64407 -0.714177 0.599792 0.360832 94 86 70
-14.7657 1.54134 -9.17551 -0.764579 -0.483692 0.425982 129 113 89
-15.7599 2.47182 -10.8849 -0.369977 -0.286829 0.883655 139 127 104
-14.5514 1.47049 -8.91884 -0.542435 -0.133664 0.829396 82 70 54
-14.6648 1.51808 -9.00784 -0.686336 -0.605444 0.402966 124 109 87
-12.8884 0.13569 -6.66138 -0.788273 0.0533501 0.613009 23 19 16
-12.9494 0.175849 -6.57687 -0.703142 -0.691559 0.16534 61 59 52
-13.0557 0.22439 -6.6633 -0.783852 0.290631 0.548735 85 79 73
-13.0746 0.268088 -6.80182 -0.78177 -0.0895764 0.6171 108 99 87
-13.0646 0.263749 -6.66496 -0.764458 0.376639 0.523208 94 85 73
-13.678 0.913313 -7.63922 -0.83874 0.280547 0.4667 24 22 15
-22.6652 6.10747 -10.4534 -0.0693393 -0.98813 0.13708 224 208 184
-22.727 6.08382 -10.4048 0.466521 -0.85574 0.223758 220 202 179
-22.7328 6.0859 -10.4878 -0.0672794 -0.993377 0.0931459 228 211 188
-13.8954 1.14888 -7.89254 -0.903513 0.0183146 0.428168 40 31 18
-12.9649 0.358599 -6.6742 -0.54805 0.61808 0.563576 23 20 12
-13.7413 1.10016 -7.69667 -0.362132 -0.885601 0.290811 92 85 73
-13.8208 1.16251 -7.79984 -0.90385 0.0549868 0.424301 33 28 17
-13.866 1.26561 -7.96028 -0.901804 -0.266708 0.340024 30 27 22
-13.8981 1.26913 -7.98436 -0.880395 0.105018 0.462466 34 27 22
-13.9888 1.35774 -8.2067 -0.870249 -0.356163 0.340315 98 86 67
-14.0251 1.42329 -8.20691 -0.440894 -0.872693 0.209807 144 131 111
-13.8823 1.33551 -7.97884 -0.770129 -0.418632 0.481299 56 45 37
-13.9344 1.33891 -7.99029 -0.862384 -0.392355 0.319923 80 68 54
-14.7447 2.2968 -9.27273 -0.0927657 -0.982913 0.158987 51 45 38
-13.8755 1.4459 -7.993 -0.815109 0.0171657 0.579053 106 93 73
-12.7811 0.25663 -6.30355 -0.806689 0.301901 0.508045 59 53 46
-12.7675 0.221396 -6.1541 -0.805305 0.371781 0.461804 21 19 16
-12.7802 0.285419 -6.23169 -0.811387 0.337263 0.477393 102 96 85
-12.7582 0.351376 -6.30434 -0.807123 0.176637 0.56334 34 29 16
-12.7849 0.412163 -6.37622 -0.817923 0.15186 0.554924 45 38 28
-13.7376 1.51801 -7.6969 -0.907246 0.0394084 0.418751 27 23 17
-13.7125 1.58339 -7.74478 -0.762856 -0.303815 0.570743 28 24 18
-13.8362 1.75569 -8.0472 -0.266469 -0.1972 0.943454 79 66 56
-12.633 0.258901 -6.07111 -0.82899 -0.0188488 0.558945 44 38 29
-12.6919 0.318276 -6.15111 -0.834603 0.266791 0.481934 70 65 54
-12.7437 0.387173 -6.23509 -0.785042 0.543348 0.297459 40 35 25
-12.5823 0.209878 -5.99892 -0.853466 -0.0687513 0.516593 34 29 22
-12.7318 0.450626 -6.30405 -0.734104 0.133807 0.665723 32 28 21
-12.7867 0.545625 -6.39024 -0.653474 0.169411 0.737748 39 34 24
-12.7892 0.603052 -6.45152 -0.648573 -0.0945371 0.755259 51 44 31
-15.3261 2.7322 -8.02704 -0.606805 -0.692396 0.390354 90 77 59
-15.3655 2.78313 -8.02955 -0.751803 -0.342547 0.56343 55 44 32
-12.6417 0.353284 -6.07479 -0.891439 0.136934 0.431955 43 37 27
-12.6556 0.415122 -6.15066 -0.861557 0.31721 0.396355 38 34 24
-12.9472 0.755522 -6.52277 -0.569988 -0.184961 0.800565 76 63 43
-14.2783 2.47742 -8.48519 -0.601918 -0.77178 0.205063 154 138 120
-15.3095 2.79065 -7.97813 -0.755019 -0.180568 0.630351 49 39 28
-15.3253 2.77795 -7.97963 -0.755024 -0.264638 0.599921 49 39 28
-12.5876 0.310064 -5.99924 -0.783598 -0.0109352 0.621172 65 59 46
-13.8362 1.98492 -7.80871 -0.873607 -0.370984 0.314932 88 75 54
-12.5227 0.218524 -5.8487 -0.764228 -0.0601802 0.642132 32 26 18
-12.5114 0.264265 -5.92747 -0.653704 -0.168177 0.737826 49 45 36
-13.555 1.8463 -7.69099 -0.774621 -0.406655 0.484349 151 131 98
-13.6059 1.79069 -7.55666 -0.665496 -0.233448 0.708955 152 130 92
-12.6109 0.449978 -6.0712 -0.825937 0.414704 0.381902 46 41 29
-12.6246 0.509146 -6.15096 -0.973985 0.220107 0.0539185 42 37 26
-12.6809 0.675571 -6.38398 -0.633487 -0.109543 0.76596 35 30 22
-12.7407 0.72479 -6.44885 -0.826918 -0.00234529 0.562317 47 41 29
-12.8612 0.802178 -6.45477 -0.551257 0.097768 0.828588 56 48 35
-13.6188 1.93239 -7.61583 -0.617606 -0.197587 0.761264 139 115 72
-13.8698 2.30135 -7.93087 -0.580142 -0.279728 0.764975 39 30 20
-12.5611 0.39531 -5.92579 -0.740926 -0.0386937 0.670471 37 33 21
-12.6408 0.708366 -6.38201 -0.524885 -0.179871 0.831951 34 30 21
-13.387 1.68046 -7.26554 -0.898397 -0.0267481 0.43837 113 103 86
-13.6792 2.07222 -7.71814 -0.780239 -0.611795 0.130126 34 27 14
-13.8509 2.26901 -7.88225 -0.326603 -0.76408 0.556339 91 80 63
-13.8443 2.33248 -7.94069 -0.698878 -0.390681 0.599114 47 37 25
-12.4905 0.342773 -5.85179 -0.718197 -0.0668495 0.692622 51 43 29
-12.7312 0.805104 -6.38534 -0.724571 -0.162611 0.669742 36 32 21
-13.3871 1.68717 -7.1619 -0.838168 -0.301252 0.454667 137 128 112
-13.6349 2.00994 -7.5248 -0.87969 -0.382279 0.282857 53 44 27
-13.7184 2.20168 -7.7527 -0.562822 -0.35388 0.746994 65 60 48
-12.843 0.93517 -6.45485 -0.554267 0.0735743 0.829081 53 46 35
-12.697 1.09519 -6.83092 -0.98286 0.0305694 0.181799 61 55 49
-13.3314 1.67999 -7.1134 -0.740785 -0.301392 0.600334 130 119 103
-13.5649 2.06655 -7.53669 -0.895958 -0.211192 0.390714 36 30 17
-13.6876 2.2535 -7.7096 -0.627503 -0.245916 0.738759 35 30 21
-13.7393 2.2729 -7.7549 -0.611659 -0.266433 0.744907 99 92 76
-13.8063 2.49616 -7.96576 -0.525684 -0.294364 0.798127 110 95 76
-13.3364 1.70756 -7.07581 -0.713384 -0.229115 0.662262 109 101 86
-13.3786 1.72362 -7.11245 -0.831878 -0.260804 0.489857 59 53 41
-13.4847 1.97399 -7.34066 -0.864575 -0.234659 0.444349 131 114 85
-13.7089 2.32462 -7.71162 -0.832167 -0.0432839 0.552833 64 54 42
-13.7322 2.37604 -7.78002 -0.759067 0.059318 0.648304 49 40 28
-14.0002 2.59574 -7.9227 -0.515908 -0.790249 0.330676 154 138 111
-14.1643 2.76255 -7.93253 -0.269785 -0.777595 0.567946 114 97 74
-12.7051 0.908367 -6.39402 -0.7351 -0.344187 0.584092 33 29 22
-12.8431 1.04433 -6.46058 -0.862005 -0.163211 0.479905 76 65 50
-13.2911 1.69248 -7.03917 -0.641423 -0.252428 0.72447 120 112 96
-13.3393 1.76664 -7.07615 -0.723392 -0.359313 0.589574 35 32 22
-13.3901 1.80115 -7.14285 -0.854106 -0.0661582 0.515875 34 30 22
-12.7815 1.01044 -6.38843 -0.665077 -0.193116 0.721373 52 45 34
-13.096 1.49259 -6.82419 -0.510911 -0.855126 0.0879116 42 36 29
-13.1036 1.47621 -6.80637 -0.803897 -0.590907 0.0676647 50 44 37
-13.32 1.74235 -7.03898 -0.786133 -0.212776 0.580277 38 33 23
-13.3351 1.80121 -7.03251 -0.773034 -0.633556 0.0320037 28 24 18
-13.4564 2.04167 -7.32142 -0.917979 0.0469138 0.393844 63 52 35
-13.512 2.22525 -7.54576 -0.903774 -0.305276 0.299997 113 100 82
-13.5626 2.24448 -7.48507 -0.730484 -0.496107 0.469331 143 131 108
-13.6648 2.37299 -7.64751 -0.762226 0.0350039 0.646364 84 73 59
-14.0617 2.7539 -7.83049 -0.50145 -0.865182 0.00275942 128 112 88
-12.7073 0.937401 -6.31946 -0.745265 -0.0775368 0.662244 29 25 17
-12.8467 1.13537 -6.4597 -0.870583 -0.2567 0.41975 101 89 73
-13.0645 1.41038 -6.64453 -0.909282 0.199619 0.365184 58 48 33
-13.1156 1.51222 -6.74806 -0.800261 -0.579083 0.155708 128 121 108
-13.2501 1.77552 -7.00922 -0.617214 -0.197876 0.761506 27 23 15
-13.396 2.00127 -7.24115 -0.714031 -0.60948 0.344519 121 108 87
-13.4459 2.02817 -7.20735 -0.69952 -0.623405 0.349339 47 37 25
-13.9814 2.73987 -7.77238 -0.40956 -0.911785 -0.0301518 135 119 94
-14.0337 2.70134 -7.68518 -0.480673 -0.876809 -0.0125782 136 120 95
-12.7588 1.04741 -6.3154 -0.664338 -0.0926037 0.741674 84 75 61
-12.7993 1.10152 -6.38794 -0.845095 -0.261804 0.466125 123 110 95
-12.9085 1.25204 -6.53308 -0.79434 -0.394811 0.461679 106 94 75
-13.0865 1.48928 -6.68764 -0.822389 -0.547448 0.154844 136 124 110
-13.2632 1.94285 -7.1528 -0.831145 -0.274816 0.483399 104 91 71
-13.4314 2.21478 -7.38085 -0.588381 -0.79623 0.140804 114 101 80
-13.5415 2.29811 -7.43315 -0.875681 -0.46403 0.133641 64 55 38
-12.6728 0.946069 -6.24351 -0.725165 0.105804 0.680398 32 28 18
-12.7596 1.06625 -6.31676 -0.863857 -0.196008 0.464038 108 97 79
-12.8318 1.18451 -6.38804 -0.907632 -0.0953994 0.408783 36 28 16
-12.861 1.22336 -6.45949 -0.907639 -0.203149 0.367317 65 55 42
-13.2046 1.85271 -7.01189 -0.622509 -0.312217 0.717637 36 31 24
-13.3133 1.98488 -7.06001 -0.78613 -0.265106 0.558318 137 125 102
-13.3726 1.99804 -7.10629 -0.795614 -0.255336 0.549365 75 65 48
-13.4715 2.23323 -7.32699 -0.778548 -0.516413 0.356623 142 128 106
-13.5508 2.32644 -7.38258 -0.81626 -0.529103 0.231884 64 55 39
-12.6946 1.03177 -6.24365 -0.947844 -0.216619 0.23381 101 91 75
-12.784 1.14462 -6.31551 -0.786625 -0.188085 0.588086 111 101 86
-12.8993 1.29823 -6.45935 -0.863222 -0.486642 0.134265 112 100 85
-13.2411 1.9441 -7.05688 -0.723301 -0.528224 0.444764 116 103 84
-13.3329 2.04663 -7.06002 -0.747409 -0.436227 0.501085 41 33 22
-13.4412 2.28493 -7.2788 -0.801177 -0.202288 0.563201 73 64 45
-13.8615 2.8089 -7.6435 -0.353123 -0.933097 0.068081 138 122 96
-12.6799 0.990807 -6.17036 -0.968467 -0.234131 0.0851737 58 48 33
-12.839 1.27206 -6.38471 -0.869153 0.0359675 0.493233 60 52 40
-13.1673 1.9014 -6.97642 -0.9245 -0.300702 0.23426 43 36 28
-13.2411 1.95408 -6.97668 -0.869296 -0.28052 0.406981 126 115 98
-13.2216 1.98598 -7.01569 -0.722975 -0.415955 0.551623 146 134 112
-13.4169 2.42818 -7.39183 -0.843578 -0.18057 0.505737 69 57 41
-13.4753 2.48579 -7.44953 -0.881076 -0.385998 0.273332 119 105 85
-24.7261 16.1873 -16.1667 -0.0959086 -0.964737 -0.245122 211 192 166
-24.6462 15.9705 -15.7781 -0.0432236 -0.95723 -0.286082 226 206 180
-24.4616 15.3309 -15.247 0.00938719 -0.948782 -0.315793 233 213 187
-24.4616 15.3309 -15.2469 -0.0148986 -0.953613 -0.300665 233 213 187
-24.2618 15.0209 -14.9584 -0.0624362 -0.960842 -0.269971 230 209 183
-12.7023 1.07622 -6.17058 -0.983378 -0.107595 0.146258 125 114 98
-12.7204 1.10813 -6.24512 -0.938833 -0.314382 0.14056 132 123 103
-12.7842 1.22517 -6.31113 -0.828649 0.0356625 0.558632 30 26 16
-13.1972 2.00366 -6.94575 -0.617619 -0.197919 0.761167 115 107 96
-24.398 16.0871 -15.9083 0.256027 -0.922791 -0.287936 210 191 166
-24.3478 15.6088 -15.4982 0.543715 -0.832513 -0.106281 220 201 175
-23.7092 14.5381 -14.4603 0.321801 -0.887928 -0.328675 218 198 173
-12.7322 1.17373 -6.23835 -0.870988 0.19068 0.452792 56 49 37
-12.8366 1.35589 -6.38244 -0.802729 -0.228106 0.550994 112 102 87
-13.2426 2.05154 -6.93666 -0.804248 -0.577274 0.141205 53 46 35
-13.3508 2.27643 -7.10165 -0.764864 -0.352675 0.539076 94 84 68
-23.9507 16.0698 -15.8355 -0.168768 -0.962167 -0.213898 186 167 146
-24.5272 16.8389 -16.5525 0.24329 -0.878345 -0.411485 193 174 151
-24.1077 15.9023 -15.5526 -0.140219 -0.962023 -0.234202 205 186 163
-24.0251 15.7651 -15.4476 0.336274 -0.921606 -0.193812 202 182 160
-12.7351 1.20728 -6.24452 -0.805148 0.282021 0.521728 20 20 13
-12.796 1.32257 -6.31211 -0.874064 0.138155 0.465752 123 114 98
-12.7842 1.32089 -6.31137 -0.84402 0.169052 0.508971 118 107 92
-13.3597 2.34171 -7.10226 -0.741184 -0.393714 0.543724 48 39 27
-13.3532 2.4708 -7.25932 -0.620352 -0.196095 0.759415 92 78 60
-13.3873 2.51257 -7.29076 -0.866941 -0.492902 0.0739036 126 111 87
-23.8533 16.0698 -15.5565 0.37814 -0.881771 -0.281941 188 169 147
-23.8395 16.046 -15.5385 0.369472 -0.887744 -0.274594 188 169 147
-23.6979 15.5119 -14.9886 0.51501 -0.816531 -0.26085 200 180 157
-12.7596 1.2683 -6.2406 -0.841007 0.0219774 0.540578 54 47 35
-13.2956 2.32726 -7.05831 -0.828659 -0.210822 0.518535 46 36 24
-13.2908 2.29615 -7.00794 -0.916584 -0.180534 0.356764 61 51 37
-13.3119 2.33111 -7.05664 -0.658069 -0.33711 0.673277 45 37 26
-13.3369 2.35221 -7.10327 -0.67407 -0.294833 0.677276 48 40 28
-13.4181 2.49908 -7.14791 -0.786757 -0.400537 0.469664 129 113 87
-13.385 2.54857 -7.23865 -0.82808 -0.548768 0.114617 130 114 88
-13.4699 2.57245 -7.23565 -0.844061 -0.526544 0.101554 141 125 98
-13.4859 2.53928 -7.14642 -0.775672 -0.456361 0.435968 140 123 96
-23.6885 16.094 -15.3029 0.333741 -0.931071 -0.147392 189 171 149
-23.5222 15.4032 -14.7694 0.686803 -0.709698 -0.156938 192 172 150
-12.7094 1.2355 -6.16585 -0.997636 0.0283406 0.0625991 42 37 28
-13.3259 2.52129 -7.20169 -0.62782 -0.220329 0.746523 120 103 80
-13.6144 2.60992 -7.07004 -0.48111 -0.729286 0.486492 152 135 107
-23.2857 15.848 -15.1665 0.424905 -0.903077 -0.0625061 183 164 143
-23.5075 15.6952 -14.6641 0.806577 -0.540959 -0.23832 193 171 150
-25.6028 17.1826 -14.7257 0.86413 -0.426247 -0.267568 224 204 180
-12.7493 1.35848 -6.23579 -0.864718 0.224343 0.44937 142 132 119
-12.738 1.36767 -6.23506 -0.849181 0.168539 0.500486 139 129 115
-12.768 1.42128 -6.31162 -0.680845 0.509094 0.526568 55 45 36
-13.2609 2.33907 -6.95196 -0.617524 -0.198745 0.761029 45 37 27
-13.2766 2.49654 -7.15301 -0.783276 -0.147923 0.603819 114 99 78
-13.521 2.58415 -7.04732 -0.634618 -0.463959 0.618064 136 120 93
-14.3221 2.71057 -6.57482 -0.661292 -0.568981 0.488828 109 95 73
-13.2399 2.51148 -7.05901 -0.704616 -0.466521 0.534673 119 103 81
-13.2337 2.50476 -7.06029 -0.773607 -0.265672 0.575283 118 102 81
-13.389 2.56146 -7.00154 -0.916574 -0.191503 0.351026 141 124 98
-13.389 2.56146 -7.00154 -0.916574 -0.191503 0.351026 141 124 98
-14.1919 2.60584 -6.39724 -0.837239 -0.221832 0.499821 128 113 86
-14.2706 2.68023 -6.48177 -0.699194 -0.434056 0.568087 116 100 77
-14.2541 2.72033 -6.42874 -0.873525 -0.232262 0.427794 102 87 65
-13.1528 2.58232 -7.01044 -0.841127 -0.244052 0.482642 135 119 93
-14.2133 2.70743 -6.37109 -0.625328 -0.604132 0.493954 106 92 69
-14.2266 2.70057 -6.37162 -0.870956 -0.331958 0.36227 105 91 69
-12.8779 1.90828 -6.4733 -0.926491 -0.35348 0.129095 93 82 65
-13.1839 2.56194 -6.91057 -0.599538 -0.602243 0.527122 133 117 90
-14.1938 2.71519 -6.36035 -0.715775 -0.287035 0.636614 109 95 73
-14.217 2.75124 -6.31852 -0.795824 -0.229417 0.560385 63 51 34
-12.7879 1.91727 -6.39672 -0.874738 -0.484479 0.0106687 63 56 43
-14.1745 2.77602 -6.2851 -0.577207 -0.171215 0.798447 55 43 29
-12.8306 2.16614 -6.48575 -0.801752 -0.596552 0.0363165 71 61 47
-12.9228 2.39557 -6.53609 -0.963091 -0.0741413 0.258763 83 71 55
-17.8837 -0.232139 -13.9489 -0.700958 0.343918 0.624803 38 31 22
-18.4114 -0.00844182 -14.597 0.277416 0.00871077 0.96071 52 43 29
-18.4109 -0.00732978 -14.5975 0.275682 0.00681923 0.961225 52 43 29
-18.4899 0.00212188 -14.5547 -0.731126 -0.20368 0.651129 54 47 36
-19.0205 0.217378 -14.9491 -0.239522 -0.325809 0.914592 99 86 65
-17.6267 -0.224645 -13.4596 -0.415947 0.759713 0.499824 85 73 59
-18.1585 -0.0776118 -14.3287 -0.424662 0.620244 0.659515 51 43 31
-18.4376 0.0493989 -14.6167 -0.0574191 0.0960121 0.993723 60 53 39
-17.6215 -0.212421 -13.4027 -0.440186 0.733753 0.517536 112 98 81
-17.9988 -0.0582168 -14.1801 0.124827 0.666549 0.734936 47 40 30
-18.1629 -0.0173826 -14.3972 -0.0400885 0.721712 0.691032 55 47 35
-18.3644 0.0500888 -14.6255 0.110339 0.0150452 0.99378 79 70 54
-19.0196 0.32136 -14.9385 -0.546591 -0.116395 0.829271 101 88 67
-19.1321 0.342708 -15.2534 0.642813 -0.0976399 0.759775 111 96 73
-17.3531 -0.265151 -13.0592 -0.292194 0.759398 0.581324 41 32 24
-17.7818 -0.0847612 -13.7998 -0.294191 0.272481 0.916082 72 62 45
