ply
format ascii 1.0
element vertex 740
property float x
property float y
property float z
property float nx
property float ny
property float nz
property uchar diffuse_red
property uchar diffuse_green
property uchar diffuse_blue
end_header
-7.42222 0.542517 -8.61353 0.449372 -0.17907 0.875213 114 118 137
14.2176 -0.967174 2.72005 -0.692306 0.147637 -0.70634 205 191 77
14.3358 -0.911815 2.63109 -0.901212 0.341082 -0.267356 150 136 45
14.2964 -0.865215 2.47159 -0.756423 -0.0952418 -0.647112 174 158 89
14.3404 -0.79016 2.36074 -0.853453 -0.0473533 -0.519014 89 76 26
14.4287 -0.723579 2.26189 -0.742819 -0.00524498 -0.669472 118 104 63
14.4584 -0.652371 2.14857 -0.758887 -0.0457266 -0.649615 148 135 79
14.1038 -0.736529 1.9568 -0.541792 -0.818971 0.189072 152 142 78
14.749 -0.566602 2.05116 -0.77287 -0.0109316 -0.63447 159 145 81
18.6355 0.00456198 1.67639 -0.640767 -0.329373 0.693492 163 146 99
14.4764 -0.150857 0.791244 -0.753437 0.302433 -0.583838 165 147 99
12.2566 0.0493553 -0.725185 -0.880811 -0.0826955 0.46619 151 137 83
11.8922 0.0767178 -0.967582 -0.714172 -0.106359 -0.691842 140 125 73
11.8112 0.121898 -0.892082 -0.866949 -0.284307 -0.409352 178 160 102
11.9497 0.134934 -1.049 -0.71379 -0.0855383 -0.695116 70 57 18
12.015 0.14369 -1.05129 -0.71677 -0.0713515 -0.69365 74 61 21
12.0715 0.0797373 -1.13524 -0.824002 0.0862808 -0.559978 121 106 66
12.077 0.19615 -1.13572 -0.781617 -0.00533244 -0.623736 121 106 67
12.244 0.136915 -1.21489 -0.697882 0.17027 -0.695679 146 130 87
12.2379 0.140681 -1.21277 -0.713198 0.174013 -0.67902 146 130 87
12.1789 0.261067 -1.21919 -0.709307 -0.00441865 -0.704886 140 126 84
12.2425 0.268686 -1.21715 -0.694154 0.169307 -0.699632 140 126 85
12.1502 0.17284 -1.3107 -0.653711 0.754372 0.0598699 143 129 81
12.2384 0.14007 -1.21357 -0.711827 0.173607 -0.68056 146 130 87
12.0365 0.159217 -1.31992 -0.629346 0.745681 0.218823 138 124 73
12.1955 0.303578 -1.31289 -0.804649 0.477101 -0.353433 139 126 79
12.1611 0.331461 -1.42958 -0.631976 0.768055 -0.103431 148 134 81
22.1868 1.63842 -1.99739 -0.68009 0.166435 -0.713987 155 133 76
25.1592 2.61449 -4.35049 -0.990027 -0.0759135 0.118676 148 134 44
10.3519 1.11952 -4.45166 -0.619042 0.0249265 0.784962 102 90 44
10.2693 1.06348 -4.51077 -0.635465 0.0359772 0.771291 140 128 61
10.2677 1.13353 -4.5758 -0.836625 0.0519946 0.545303 145 132 56
10.5147 1.13552 -4.66666 -0.84348 0.0589425 -0.533918 145 134 45
10.5147 1.13552 -4.66666 -0.84348 0.0589425 -0.533918 145 134 45
5.41246 0.940635 -5.82061 -0.994883 0.0786438 -0.0634231 131 110 46
5.40902 1.07059 -5.82283 -0.996043 0.0187374 0.0868765 131 105 45
5.36684 0.996383 -5.92429 -0.992948 -0.110002 0.0442146 152 130 76
5.22792 1.09441 -6.21305 -0.586754 -0.574844 -0.570328 158 140 93
5.21056 1.09814 -6.37922 -0.416846 0.121086 0.900876 127 111 67
5.31015 1.09885 -6.29792 -0.41926 -0.882012 -0.215119 141 124 78
5.34266 1.20896 -6.43836 -0.412012 -0.911174 -0.00275192 117 103 61
5.31087 1.25994 -6.43043 -0.392886 -0.907734 -0.147171 112 98 55
5.35395 1.2266 -6.40756 -0.764459 0.122259 -0.632973 116 101 58
5.35395 1.2266 -6.40756 -0.764459 0.122259 -0.632973 120 106 62
8.3216 2.05406 -8.21654 -0.598372 -0.612995 -0.515934 83 72 35
8.3216 2.05406 -8.21654 -0.598372 -0.612995 -0.515934 83 72 35
15.2096 4.31209 -12.6032 -0.880052 0.0713466 -0.469487 171 148 107
18.1294 5.30939 -14.7285 -0.443834 -0.878672 -0.175919 107 95 64
18.0326 5.61282 -15.4276 -0.418337 -0.90685 -0.0511595 93 81 55
19.7063 6.30302 -16.8745 -0.900995 -0.0445639 -0.431536 96 83 57
5.41889 4.66862 -16.5085 0.323466 -0.278377 0.904365 93 79 52
4.74139 4.37712 -16.4306 -0.333389 -0.40973 0.849101 47 44 31
4.59296 4.46061 -16.5745 -0.481555 -0.266358 0.83496 29 28 21
4.61036 4.5472 -16.4876 -0.316235 -0.564779 0.762247 40 36 25
4.69278 4.47115 -16.4792 -0.186585 -0.509971 0.839712 40 38 27
4.26493 4.5364 -16.5083 -0.108387 -0.629614 0.76931 53 42 25
4.49341 4.53908 -16.5354 -0.44605 -0.486173 0.751449 36 33 23
4.45687 4.43947 -16.5977 -0.81118 -0.0680897 0.58082 32 27 19
2.41019 3.74065 -15.0588 -0.0777406 0.475766 0.87613 119 77 18
1.57501 3.43115 -14.0802 -0.0103384 -0.157499 0.987465 114 75 22
1.64223 3.26291 -14.1035 -0.214237 0.623033 0.752285 114 75 19
0.604703 3.04338 -13.7225 0.105564 0.045567 0.993368 175 155 118
0.406896 3.03222 -13.6787 0.0968004 0.0686709 0.992932 74 64 45
0.2778 3.13227 -13.7031 -0.517432 0.0393044 0.854821 35 34 26
0.160253 3.06239 -13.7662 -0.480723 0.180515 0.858091 33 33 28
0.0230427 3.06659 -13.8545 -0.276818 0.0697914 0.958385 51 39 20
-0.124259 3.06613 -13.8957 -0.18332 0.0591014 0.981275 118 84 32
-0.291077 3.05538 -13.8971 -0.149728 0.177361 0.972689 132 87 18
-2.58383 2.23338 -11.8845 -0.351567 0.492478 0.796157 141 102 27
-2.78189 2.19004 -11.9483 0.279127 0.337488 0.898994 84 77 52
-2.94708 2.17495 -11.8648 0.2934 0.239661 0.925462 192 173 132
-6.09386 0.789169 -8.93079 0.315055 -0.147243 0.937582 157 140 113
-6.16801 0.795137 -8.92237 -0.225622 -0.239046 0.944432 137 122 98
-6.2464 0.791094 -8.92747 -0.0960611 -0.247262 0.964175 76 64 47
-6.32485 0.781158 -8.90207 -0.0863045 0.106923 0.990515 49 40 26
-6.32358 0.758185 -8.82409 0.0276776 -0.238305 0.970796 54 44 30
-6.40095 0.768342 -8.83249 0.206781 -0.163808 0.964577 44 33 21
-6.47756 0.772886 -8.85311 0.0947964 -0.211792 0.972707 34 26 17
-6.56333 0.746542 -8.79822 0.188915 -0.396089 0.898568 31 24 17
-6.6276 0.734069 -8.80333 0.406545 -0.139458 0.902925 30 25 17
-7.35413 0.530306 -8.51557 0.437829 0.110843 0.892199 118 122 134
-7.48615 0.728672 -9.10191 0.678928 -0.164781 0.715474 119 126 144
-7.50203 0.533465 -8.5675 0.306303 -0.201791 0.930301 108 110 128
-7.57869 0.529827 -8.53099 0.329463 -0.185136 0.925839 96 99 117
-7.68355 0.54096 -8.57404 0.600825 -0.237366 0.763327 59 59 75
14.2531 -0.724141 2.7417 -0.983101 0.171412 0.0642742 207 195 79
14.2425 -0.778334 2.59592 -0.949648 0.144311 0.278107 147 135 42
14.2832 -0.63284 2.60316 -0.963171 -0.119355 0.240946 147 134 42
14.2673 -0.707413 2.46935 -0.965948 0.0434445 -0.255063 180 164 93
14.3371 -0.645868 2.36045 -0.838407 -0.0123075 -0.544906 89 77 27
14.4164 -0.576666 2.25836 -0.794648 0.00991543 -0.60699 115 101 60
14.48 -0.504542 2.15339 -0.783873 -0.0887685 -0.614543 145 130 74
14.4927 -0.50803 2.16105 -0.770083 -0.0371178 -0.636864 145 130 74
14.5262 -0.499361 2.11862 -0.762346 -0.0291835 -0.646511 150 134 74
13.984 -0.451108 1.88797 -0.524095 -0.834019 0.172443 146 133 75
17.5758 -0.0273468 1.97696 -0.648399 0.697635 0.304771 155 134 82
11.9424 0.114768 -0.726055 -0.56813 -0.774709 -0.277588 143 129 74
11.8997 0.21556 -0.726077 -0.586272 -0.746551 -0.314557 141 127 73
11.8595 0.147019 -0.869868 -0.88829 0.26179 -0.377368 180 159 98
11.8637 0.252806 -0.872178 -0.910082 0.200708 -0.362585 177 160 103
11.807 0.126276 -0.891324 -0.863908 -0.288778 -0.412639 178 160 102
11.8676 0.187996 -0.971236 -0.712789 -0.0579561 -0.69898 140 125 72
11.9034 0.202135 -0.962259 -0.974176 0.221678 -0.0428962 142 127 75
11.8479 0.298071 -0.971712 -0.584601 -0.159527 -0.795483 144 129 76
11.9236 0.246772 -1.05086 -0.801402 -0.0700854 -0.594006 76 62 23
11.9258 0.257975 -1.0487 -0.714169 -0.105846 -0.691925 73 59 20
11.9109 0.355239 -1.05315 -0.714227 -0.114719 -0.690448 74 61 22
11.983 0.306864 -1.1322 -0.725388 -0.140605 -0.673827 111 96 59
12.1382 0.389007 -1.21752 -0.712821 -0.0122973 -0.701238 139 125 84
12.2248 0.400137 -1.22051 -0.716546 0.174267 -0.67542 137 123 83
12.1359 0.39227 -1.21554 -0.713446 -0.0156387 -0.700536 139 125 84
12.023 0.301765 -1.2897 -0.942371 -0.248177 0.224378 139 125 82
12.0736 0.439393 -1.29221 -0.792065 -0.345018 -0.503582 140 126 84
12.254 0.441726 -1.31251 -0.822519 0.428254 -0.374249 142 128 80
20.0922 1.4263 -1.86192 -0.719335 0.565766 -0.403071 140 119 66
24.8426 2.72868 -3.86904 -0.917061 -0.0199351 0.398247 163 142 70
10.342 1.23015 -4.45082 -0.672274 0.0151403 0.740147 100 87 42
10.3191 1.18604 -4.51497 -0.815401 0.0316881 0.578029 137 124 62
10.3103 1.29169 -4.51829 -0.852548 -0.470653 0.227261 134 121 60
5.86239 1.18468 -5.55279 -0.30334 -0.931595 0.200289 137 109 48
5.29541 1.25304 -6.32832 -0.468715 -0.809689 -0.353143 125 109 64
7.85751 2.02996 -7.73865 -0.963942 -0.0886189 -0.250922 54 45 22
7.92325 2.13379 -7.90313 -0.83992 -0.0778913 -0.537091 106 95 68
8.15521 2.28021 -8.2631 -0.801699 0.136636 -0.581901 38 28 10
14.7428 4.14154 -11.8312 -0.852539 0.207028 -0.479913 63 48 21
14.9448 4.71251 -12.7939 -0.795942 -0.261307 -0.546072 158 140 101
17.4294 5.68215 -14.7292 -0.472599 -0.861679 -0.184822 91 80 57
4.37213 4.34688 -15.231 -0.584301 -0.541515 0.604445 93 79 51
4.55571 4.65707 -16.5051 -0.33496 -0.549693 0.765271 58 51 36
4.83315 4.6617 -16.5815 0.261227 -0.352146 0.898751 61 55 38
4.33734 4.67872 -16.5284 -0.505567 -0.446952 0.737995 68 58 39
4.232 4.72255 -16.4882 -0.317111 -0.756679 0.571732 77 65 41
4.42442 4.61691 -16.5396 -0.393496 -0.549052 0.737363 49 43 29
4.20532 4.61748 -16.5327 -0.14806 -0.673308 0.724386 66 53 31
4.12094 4.5963 -16.6038 -0.0394856 -0.5516 0.833174 77 55 26
4.11836 4.67983 -16.5209 0.131042 -0.347194 0.928593 75 60 33
1.0373 3.44911 -13.8162 0.366462 -0.181905 0.912478 127 111 81
0.525291 3.21413 -13.7424 0.12723 0.0516033 0.99053 153 135 105
0.525604 3.21899 -13.7429 0.126138 0.0513194 0.990685 153 136 105
0.630564 3.3884 -13.7818 0.0875401 0.073768 0.993426 177 156 116
0.631226 3.39346 -13.7827 0.0878261 0.0750431 0.993305 177 156 116
0.322476 3.19983 -13.6953 0.0323622 0.0713383 0.996927 43 38 26
0.296697 3.28634 -13.7162 -0.454258 0.0293782 0.890386 38 35 25
0.412604 3.21299 -13.6691 -0.416936 0.0258142 0.908569 98 86 63
0.444262 3.30251 -13.6731 -0.0408707 0.0779104 0.996122 128 114 87
0.188377 3.22618 -13.7953 -0.567136 0.151371 0.809595 32 32 27
0.160527 3.28312 -13.7793 -0.515116 0.291583 0.805999 32 32 27
0.108068 3.20668 -13.84 -0.543669 0.0671871 0.836607 34 32 24
0.0910086 3.19307 -13.8292 -0.422654 0.0164735 0.906141 35 32 23
-0.00635952 3.28325 -13.8862 -0.28458 0.0712839 0.955998 59 45 21
-0.0408233 3.20321 -13.8961 -0.0458076 0.0503381 0.997681 84 63 30
-0.0433904 3.20188 -13.8955 -0.0304246 0.0429788 0.998613 85 64 30
-0.0493988 3.18658 -13.8782 -0.284901 0.0813533 0.955099 85 64 30
-2.47966 2.38628 -11.9645 -0.279081 0.534646 0.797664 145 101 20
-2.67143 2.35467 -11.9245 -0.121474 0.407947 0.904889 107 79 26
-2.80325 2.33138 -11.9117 -0.393376 -0.148554 0.907296 75 67 42
-2.89293 2.36422 -12.0124 -0.30108 -0.154691 0.940968 195 178 139
-2.83889 2.25877 -11.9924 -0.268073 -0.168523 0.948545 160 148 117
-3.09951 2.17395 -11.7936 0.352929 0.302188 0.885508 199 175 128
-5.89313 0.966792 -9.15392 0.71945 -0.148097 0.678572 194 168 123
-6.1267 0.895719 -8.98835 -0.254544 -0.236529 0.937689 185 162 120
-6.19225 0.834931 -8.86786 0.200183 -0.164133 0.965913 176 155 116
-6.19352 0.854611 -8.93973 0.239467 -0.166379 0.956543 174 154 117
-6.28588 0.858806 -8.92453 -0.11858 0.114569 0.986313 165 148 111
-6.37563 0.849999 -8.90663 -0.16155 0.0813215 0.983508 144 128 98
-6.44166 0.831326 -8.81725 -0.108184 -0.381776 0.917902 140 125 95
-6.51774 0.823041 -8.80071 -0.0745893 -0.355567 0.93167 103 91 67
-6.6345 0.74881 -8.77983 0.690066 -0.148882 0.708268 29 24 17
-6.64687 0.726267 -8.71871 0.691049 -0.148164 0.70746 29 24 17
-6.71188 0.599845 -8.38153 0.590848 -0.189604 0.784187 29 25 19
-7.37845 0.62906 -8.65622 -0.119635 0.565578 0.815971 61 63 68
-7.5434 0.634357 -8.63331 0.311164 -0.00128675 0.950356 94 101 109
-7.86581 0.517399 -8.44134 -0.542505 -0.0326471 0.839418 44 43 54
-7.95485 0.518883 -8.50099 -0.49593 -0.359989 0.790229 39 38 47
14.2328 -0.559233 2.72961 -0.954766 0.113336 -0.274911 208 195 81
14.2657 -0.56143 2.46902 -0.976872 -0.00156954 -0.213819 178 164 90
14.2571 -0.49185 2.59389 -0.814905 -0.0748156 -0.574746 147 134 41
14.2499 -0.419406 2.46782 -0.926473 -0.0692186 -0.369941 176 162 90
14.4206 -0.425559 2.26145 -0.755468 0.0643003 -0.652023 112 98 57
14.5476 -0.349498 2.12423 -0.793414 -0.0258172 -0.608134 139 124 69
14.5206 -0.357349 2.16472 -0.798931 -0.0886423 -0.594855 140 126 71
14.1179 -0.291514 1.91575 -0.5017 -0.856832 0.118899 145 130 77
14.0706 -0.301936 1.90695 -0.4876 -0.87048 0.0671684 145 130 77
18.5023 -0.029705 2.50311 -0.682468 -0.18111 0.708122 151 131 75
17.7148 0.0442947 2.0875 -0.748985 0.2337 -0.620005 154 133 80
11.7937 0.345209 -0.892049 -0.700308 -0.0407832 -0.712674 175 158 101
11.7615 0.440409 -0.883897 -0.710699 -0.0318174 -0.702776 175 159 103
11.8977 0.370617 -0.864748 -0.908033 -0.377273 -0.182046 173 158 102
11.9094 0.361362 -1.05129 -0.893552 -0.0675656 -0.443846 75 61 22
11.9265 0.383913 -1.04545 -0.860111 -0.220311 -0.460078 74 61 22
11.8551 0.40905 -0.970343 -0.765599 -0.0428046 -0.641892 145 130 76
11.8199 0.433494 -0.970759 -0.493017 -0.294329 -0.818722 148 133 79
11.9443 0.424454 -0.953099 -0.976786 0.126286 -0.173036 146 132 79
11.9788 0.430985 -1.13293 -0.78615 -0.114054 -0.607421 106 92 56
11.8895 0.475437 -1.05175 -0.714052 -0.146735 -0.684543 80 68 27
12.1002 0.516317 -1.21602 -0.715499 0.00729601 -0.698576 133 119 79
12.0967 0.519284 -1.21402 -0.716014 0.0114564 -0.697992 132 119 78
11.9505 0.546284 -1.13251 -0.766037 -0.132204 -0.629055 103 89 53
12.2372 0.610146 -1.31923 -0.735824 0.488186 -0.469295 131 116 74
11.7082 0.473909 -1.40205 -0.447333 -0.807016 0.38551 124 109 69
11.7401 0.603228 -1.33568 -0.473277 -0.785584 0.398581 122 107 70
24.8815 3.10908 -4.1466 -0.573722 -0.560321 0.597397 153 137 51
24.6836 3.20068 -4.30433 -0.674297 -0.214729 0.706551 146 132 37
5.7633 0.947752 -4.4985 -0.719626 0.148418 -0.678315 148 123 51
5.44188 1.2356 -5.62963 -0.930616 -0.173207 0.322419 92 56 11
5.42859 1.2898 -5.92587 -0.948435 0.206135 0.240788 142 115 70
7.82118 2.20681 -7.73254 -0.939741 -0.038547 -0.339707 54 45 21
7.82446 2.31829 -7.59438 -0.969432 -0.23989 -0.0515107 92 84 52
8.00393 2.33914 -7.93567 -0.792009 0.0207962 -0.610155 106 95 68
8.1477 2.46863 -8.11859 -0.80147 0.158972 -0.576519 91 80 52
14.6993 4.45464 -11.778 -0.854339 0.200508 -0.479481 35 23 13
14.7623 4.70495 -11.7919 -0.992945 0.118382 -0.00674766 35 24 14
14.5669 5.14058 -13.3143 -0.776346 -0.615054 -0.137824 95 84 58
14.7869 5.13579 -13.538 -0.735053 -0.648247 -0.198676 98 85 60
15.968 5.60159 -14.1469 -0.520621 -0.792489 -0.31767 97 84 58
14.7111 5.34594 -14.196 -0.906347 -0.324054 -0.271152 100 86 57
4.47772 4.45585 -14.8808 -0.30865 -0.949763 0.0518251 92 78 50
4.55853 4.30467 -14.9338 -0.630772 -0.619385 0.467429 94 80 51
4.48247 4.31083 -15.0154 -0.676684 -0.589308 0.441379 94 80 51
4.45499 4.34818 -15.1562 -0.567913 -0.538811 0.62222 95 81 53
4.37249 4.46994 -15.3177 -0.656199 -0.474907 0.586402 92 78 50
5.03454 4.87136 -16.2517 0.362676 -0.38641 0.848029 93 79 51
4.82656 4.8747 -16.3586 0.135797 -0.409231 0.902269 88 75 48
1.40483 3.67005 -14.0414 -0.153582 -0.0941022 0.983645 81 60 30
1.13312 3.59819 -13.8447 0.440622 -0.284642 0.85137 83 66 39
0.809309 3.39913 -13.6428 0.452168 -0.312397 0.835436 172 154 117
0.75632 3.57986 -13.8508 -0.0870236 0.423191 0.901852 180 156 115
0.753727 3.58257 -13.8465 -0.0942004 0.426662 0.899492 180 156 115
0.431982 3.37001 -13.7443 0.114763 0.0656281 0.991223 94 83 60
0.364242 3.41497 -13.6838 -0.0466135 0.0903372 0.99482 71 62 42
0.244473 3.43756 -13.7626 -0.641641 0.0512511 0.765291 34 33 26
0.258529 3.37397 -13.7469 -0.498681 0.0491449 0.865391 36 34 25
0.042446 3.37481 -13.7745 -0.873788 0.129473 0.468756 33 30 23
0.128395 3.53037 -13.8296 -0.534678 0.20177 0.820615 33 31 26
-0.053232 3.45794 -13.8725 -0.960861 -0.0897698 0.262084 67 51 25
-0.0829985 3.41353 -13.9086 -0.244099 0.0201605 0.969541 95 71 34
-2.6153 2.42817 -11.8502 -0.143288 0.430153 0.891312 143 102 26
-2.74346 2.44742 -11.9147 -0.184577 -0.304439 0.934477 69 54 19
-2.73672 2.44682 -11.919 -0.106291 -0.32786 0.938728 70 55 19
-2.85457 2.44063 -11.9398 -0.362349 -0.243235 0.899744 126 117 91
-6.22665 1.00784 -9.15567 -0.147654 0.108423 0.983078 183 160 117
-6.28464 1.01154 -9.0638 -0.494218 0.241816 0.835029 184 159 117
-6.33075 0.924793 -8.90505 -0.185245 0.115247 0.975911 175 151 111
-6.41787 0.930614 -8.93271 -0.160768 0.323999 0.932298 164 144 102
-6.38716 0.982299 -9.04588 -0.512703 0.488489 0.706055 168 146 104
-6.59329 0.817784 -8.7924 0.317094 -0.268624 0.909557 64 53 34
-6.66509 0.825801 -8.78934 0.371818 -0.167792 0.913015 53 44 27
-6.73791 0.835032 -8.78502 0.358003 -0.174757 0.917221 45 35 18
-7.46287 0.677868 -8.60116 -0.503186 0.0840804 0.860078 53 52 48
-7.55437 0.839093 -9.17171 0.634179 -0.124517 0.763094 43 43 50
-7.61293 0.616767 -8.55181 -0.511905 -0.0592656 0.856995 98 104 113
-7.71312 0.644333 -8.65579 0.430276 -0.282757 0.85727 113 119 131
-8.00089 0.546495 -8.4321 0.584301 -0.238821 0.775601 57 58 72
14.2233 -0.414356 2.72305 -0.968926 0.112092 -0.220496 208 195 81
14.2816 -0.340344 2.60474 -0.954149 -0.218312 0.20479 148 135 43
14.2411 -0.349569 2.59262 -0.813635 -0.104495 -0.571909 148 135 42
14.2637 -0.27461 2.46743 -0.952167 0.100258 -0.288664 173 159 88
14.3404 -0.348628 2.35896 -0.726928 0.00730861 -0.686675 88 77 29
14.4361 -0.275382 2.26213 -0.711805 0.079698 -0.697841 115 101 61
14.3415 -0.216196 2.34917 -0.88127 0.00117566 -0.472611 81 70 24
14.4189 -0.292791 2.22176 -0.74042 0.0836812 -0.666915 131 116 73
14.4773 -0.208875 2.11512 -0.848805 -0.16409 -0.502598 148 130 76
16.5971 0.186437 2.03319 -0.324783 -0.535347 -0.779692 165 143 89
16.5123 0.0778728 1.96798 -0.557486 -0.72668 -0.40143 167 144 91
16.7895 0.151411 2.03376 -0.754197 0.278031 -0.594883 165 143 90
17.222 0.268788 1.84819 -0.672761 0.672325 -0.308823 162 140 88
17.3205 0.347113 1.96791 -0.719659 0.148641 -0.678231 157 135 82
11.8269 0.469059 -0.885445 -0.408949 -0.854304 -0.320818 174 158 101
11.8807 0.553582 -0.867756 -0.798282 -0.465906 -0.381678 171 158 104
11.815 0.523635 -0.975213 -0.560636 -0.364181 -0.74368 145 131 76
11.7845 0.564769 -0.959248 -0.485632 -0.332655 -0.808395 157 142 86
11.9179 0.526818 -0.958954 -0.96122 0.207672 -0.181463 145 131 77
11.7546 0.642026 -0.972966 -0.512838 -0.389013 -0.765288 152 137 83
11.8851 0.59527 -1.05229 -0.714107 -0.143415 -0.685189 82 69 29
11.9474 0.66639 -1.13316 -0.781703 -0.0892238 -0.617235 96 82 49
11.9693 0.577548 -1.13807 -0.790404 -0.0471334 -0.61077 110 96 62
12.1018 0.648079 -1.21601 -0.67954 -0.121552 -0.723499 127 112 75
12.078 0.779929 -1.21602 -0.683128 0.156871 -0.713251 127 110 74
11.7974 0.735931 -1.27445 -0.407756 -0.90635 0.110744 120 105 67
11.7974 0.735931 -1.27445 -0.407756 -0.90635 0.110744 120 105 67
11.7974 0.735931 -1.27445 -0.407756 -0.90635 0.110744 120 105 67
12.1727 0.770422 -1.33039 -0.795108 0.524457 -0.304548 126 111 72
12.5194 0.824753 -1.61548 -0.813917 0.254261 -0.522389 137 119 75
10.7265 0.692145 -1.83193 -0.775031 0.55031 0.310622 148 127 82
10.6818 0.669541 -1.86159 -0.767205 0.574088 0.286041 148 127 82
24.3287 3.32415 -4.06059 -0.57666 -0.271907 0.770409 147 132 43
9.73889 1.58501 -4.71903 -0.64933 0.750134 0.12518 135 112 45
5.5906 0.969894 -4.59975 -0.965735 0.135731 -0.221209 143 117 48
5.60519 1.12853 -4.80853 -0.656548 0.720712 0.222532 136 105 43
6.04185 1.2936 -5.13908 -0.407702 -0.870925 0.274349 106 71 19
5.97246 1.39318 -5.26412 -0.602766 -0.795089 0.0671359 105 73 28
6.02231 1.32752 -5.41636 -0.590342 -0.803907 0.0723134 100 64 16
5.67018 1.31292 -5.51462 -0.63603 -0.741232 0.214571 98 62 17
5.35824 1.37505 -5.80747 -0.906226 -0.310082 0.28741 148 123 79
5.41331 1.49066 -5.80289 -0.981765 0.0240331 0.188576 103 86 41
6.37686 2.06997 -7.08609 -0.794616 0.224188 -0.564204 101 93 53
6.46068 2.09191 -7.11279 -0.793931 0.218279 -0.567475 100 92 52
7.84775 2.41076 -7.74401 -0.871759 -0.00892417 -0.489854 52 43 19
7.91355 2.57493 -7.90722 -0.80019 0.0538913 -0.59732 105 95 68
7.96688 2.5303 -7.92157 -0.773406 -0.0287254 -0.63326 105 94 67
8.02237 2.76138 -8.2136 -0.827434 0.196264 -0.52615 65 51 29
8.07347 2.75304 -8.28626 -0.826763 0.463841 -0.318299 65 50 29
8.06736 2.68867 -8.3195 -0.868557 0.358744 -0.341922 51 37 21
14.8416 4.87897 -11.6114 -0.205784 -0.957495 0.202132 41 28 17
14.3285 5.12039 -12.4958 -0.553903 -0.804899 0.212907 79 68 43
14.219 5.26796 -12.8929 -0.712748 -0.457716 -0.531494 93 82 57
4.669 4.49648 -14.4887 -0.469252 -0.873401 -0.130285 96 82 52
4.79265 4.55913 -14.471 -0.343238 -0.936982 0.065207 95 81 51
4.61923 4.48833 -14.6493 -0.440577 -0.891155 -0.108331 97 82 53
4.42314 4.51888 -14.8729 -0.39214 -0.919786 0.0148144 95 81 52
4.19367 4.50666 -14.6722 -0.575665 -0.793773 -0.196302 93 78 50
1.46481 3.80117 -13.9858 0.415814 -0.180326 0.891393 88 69 38
0.479045 3.59193 -13.7385 -0.109839 0.0922774 0.989657 150 132 103
0.255553 3.59508 -13.7596 -0.510801 0.0632562 0.857369 36 33 26
0.154498 3.69463 -13.8421 -0.592334 0.367454 0.71702 31 31 28
-2.5271 2.65887 -11.9839 0.221981 0.377601 0.898967 145 102 22
-2.70894 2.51348 -11.8311 0.367313 -0.287562 0.884528 121 88 31
-2.69434 2.52129 -11.8544 0.574438 -0.208718 0.791491 126 92 32
-2.80626 2.5393 -11.909 -0.0243511 -0.171057 0.98496 60 53 28
-2.94241 2.49811 -11.8332 -0.513795 -0.168912 0.841121 173 162 129
-3.00683 2.44745 -11.7316 0.599418 -0.18521 0.778714 179 165 129
-3.09517 2.50905 -11.8121 0.545785 -0.299163 0.7827 205 179 131
-3.0954 2.50817 -11.8108 0.548875 -0.296551 0.781534 200 175 129
-6.5574 0.878529 -8.76468 -0.0634944 -0.251993 0.965644 150 133 91
-6.54157 0.917108 -8.82023 0.679143 -0.165903 0.715011 160 141 96
-6.62075 0.847488 -8.68977 0.420449 -0.200627 0.884857 142 126 89
-6.62178 0.852165 -8.70326 0.4883 -0.189469 0.85186 142 126 89
-6.63772 0.835468 -8.65468 0.551607 -0.200722 0.809593 141 125 87
-6.69658 0.888557 -8.75474 0.383133 -0.178112 0.906358 141 125 85
-6.68934 0.861401 -8.75318 0.530561 -0.142045 0.83566 130 116 84
-6.74759 0.81838 -8.67365 0.654314 -0.182142 0.733961 89 77 53
-6.80101 0.865762 -8.71309 0.49311 -0.176723 0.851828 119 105 74
-6.80387 0.871454 -8.72559 0.505579 -0.167814 0.846303 120 106 74
-6.79709 0.866653 -8.72441 0.346533 -0.284771 0.893768 117 104 72
-7.29698 0.794116 -8.70651 0.717209 -0.149049 0.680732 40 34 26
-7.27922 0.775289 -8.61992 0.517461 -0.175492 0.837518 34 28 20
-7.36318 0.789309 -8.67668 0.551772 -0.172962 0.815863 44 40 30
-7.46578 0.754677 -8.68018 -0.705113 -0.18244 0.685223 73 71 62
-7.49445 0.76548 -8.69824 -0.553466 0.176811 0.813887 74 72 62
-7.49443 0.772453 -8.70584 -0.543237 0.0831631 0.83545 66 64 54
-7.5568 0.741547 -8.69162 -0.438557 0.120961 0.890526 86 85 77
-7.57385 0.739651 -8.67965 -0.499358 -0.0359999 0.865648 87 86 79
-7.59667 0.739703 -8.67307 -0.189307 -0.131222 0.97311 88 86 79
-7.68415 0.741338 -8.6943 -0.188516 -0.0779127 0.978975 39 37 33
-7.75349 0.71233 -8.6299 0.10978 -0.112136 0.98761 30 31 30
-8.00097 0.584711 -8.46362 0.609519 -0.191283 0.769349 114 118 135
-8.0686 0.552796 -8.39818 0.637656 -0.183324 0.748189 62 64 77
-8.07328 0.543859 -8.39114 0.389968 -0.304316 0.86909 53 53 66
14.1737 -0.233682 2.72582 -0.650766 0.513643 -0.559173 211 198 80
14.2339 -0.193756 2.58607 -0.78443 0.390088 -0.482184 151 136 44
14.2489 -0.132768 2.458 -0.911575 0.163231 -0.377341 172 157 88
14.3326 -0.197842 2.35656 -0.721375 0.0195198 -0.69227 89 78 29
14.3245 -0.0651078 2.34383 -0.719192 0.0187775 -0.694558 83 72 25
14.4328 -0.142551 2.25363 -0.716371 0.0595361 -0.695175 118 103 63
14.3015 0.00695919 2.19827 -0.878936 0.0487054 -0.474446 125 110 71
14.4054 0.00780224 2.24584 -0.750273 0.0499279 -0.65924 117 103 65
14.4515 -0.0755924 2.13862 -0.743743 -0.0194003 -0.668184 147 130 79
14.4728 -0.0609727 2.1171 -0.791466 -0.068452 -0.607367 149 132 78
14.5021 0.0691999 2.12141 -0.680286 0.166322 -0.713827 152 136 82
14.4449 -0.0418112 1.99512 -0.579007 0.81529 0.00728844 153 136 83
14.3164 0.102467 1.96044 -0.697457 0.655346 -0.289956 154 137 79
16.7642 0.286767 2.37131 -0.625584 -0.680139 0.382173 163 142 88
16.1056 0.236752 2.16716 -0.547785 -0.764244 0.340387 159 139 84
14.7023 0.16171 1.84878 -0.677413 0.701125 -0.222564 156 136 80
11.8512 0.667963 -0.859268 -0.577152 -0.239809 -0.780633 169 155 103
11.72 0.764226 -0.965191 -0.548206 -0.320342 -0.772561 158 143 90
11.9156 0.782239 -1.13247 -0.895298 -0.0597086 -0.441448 89 75 43
11.8694 0.71727 -1.05173 -0.71826 -0.116778 -0.685905 83 70 31
11.8709 0.718083 -1.05263 -0.719443 -0.110975 -0.685628 82 69 30
11.8354 0.76388 -1.04695 -0.641387 -0.37681 -0.668309 92 78 38
11.8555 0.834966 -1.04635 -0.854157 0.0336779 -0.518924 90 77 37
11.8548 0.831888 -1.04693 -0.854116 0.0345732 -0.518932 90 76 36
11.914 0.892218 -1.13268 -0.879043 0.0139325 -0.476539 89 75 43
11.9542 0.839671 -1.21751 -0.937638 0.0211916 -0.346968 124 108 75
12.2316 0.960924 -1.30101 -0.739175 0.362235 -0.567809 134 118 82
12.1869 0.990029 -1.33893 -0.800034 0.444709 -0.402716 135 119 80
10.7674 0.995349 -1.83784 -0.691752 0.147489 -0.706914 136 115 68
10.7198 0.989009 -1.84095 -0.691889 0.147664 -0.706743 136 115 68
10.7866 0.993369 -1.83618 -0.691777 0.14752 -0.706882 136 115 68
10.7259 0.978454 -1.83752 -0.691782 0.147536 -0.706874 133 112 72
10.5523 0.960624 -1.84726 -0.698517 0.137966 -0.702167 136 115 68
10.6615 0.959726 -1.867 -0.691889 0.147273 -0.706824 134 113 72
10.627 0.94778 -1.87526 -0.691773 0.147543 -0.706882 134 113 72
10.6443 0.945547 -1.87376 -0.691851 0.147676 -0.706777 134 114 72
23.2036 3.42709 -3.99062 -0.615557 -0.0188334 0.787867 129 114 48
21.0161 3.1571 -4.02701 -0.567097 0.429345 0.702897 63 51 16
9.60678 1.67119 -4.22007 -0.876457 -0.478784 -0.050873 145 122 60
6.07004 1.13244 -4.24319 -0.958517 0.191076 0.211507 145 117 50
6.41557 1.28202 -4.33721 -0.722747 0.590381 0.359288 139 112 53
6.05167 1.21029 -4.64914 -0.633487 0.678751 0.371472 141 110 45
6.17844 1.23865 -4.65408 -0.64023 0.590399 0.491462 139 109 45
6.42642 1.38127 -4.66405 -0.82688 0.453876 -0.332064 100 66 13
6.10997 1.39906 -4.84631 -0.708525 0.701619 -0.0756545 103 71 24
5.38497 1.46912 -5.48434 -0.930109 -0.0257902 0.366376 104 86 40
5.31049 1.53651 -5.65445 -0.953618 0.218083 0.207492 91 76 37
5.50724 1.65481 -5.82792 -0.999964 -0.00483835 0.00696084 81 68 28
7.70043 2.68139 -7.59438 -0.994548 -0.095837 -0.0411088 90 82 51
7.86341 2.74488 -7.8838 -0.783847 0.0394156 -0.619702 104 94 67
14.5619 5.62455 -12.6932 -0.840601 0.533657 -0.0927343 90 78 55
14.0834 5.31909 -12.6539 -0.912369 -0.203618 0.355136 90 79 56
11.1052 4.60095 -11.5367 -0.312803 0.355026 0.880972 103 86 59
4.65652 4.61366 -14.1746 -0.768572 -0.616324 0.171583 96 81 51
4.74426 4.49389 -14.1687 -0.755174 -0.635211 0.161923 98 83 53
4.68362 4.62884 -14.5352 -0.509747 -0.846294 -0.154741 96 81 51
4.72951 4.72954 -14.4409 -0.763013 -0.626176 0.16036 93 79 49
4.54971 4.70639 -14.587 -0.536075 -0.843622 -0.0304281 96 82 52
3.96756 4.55525 -14.3071 -0.606626 -0.782833 -0.138481 95 80 50
3.39828 4.42048 -14.07 0.113732 -0.927676 0.355643 94 79 51
1.42879 4.02126 -14.127 -0.105263 0.493892 0.863128 84 66 40
0.584168 3.75953 -13.7696 -0.0668011 0.0198974 0.997568 178 156 117
0.448594 3.7714 -13.7326 -0.327475 0.00546357 0.944844 146 130 101
0.278878 3.75647 -13.7666 -0.366137 0.0917859 0.926023 40 35 26
0.182924 3.88651 -13.8257 -0.359129 0.0912062 0.928821 33 33 29
-0.0449878 3.715 -13.7064 -0.606423 0.279172 0.744523 39 35 25
0.075715 3.79951 -13.9019 -0.552738 0.0682222 0.830558 34 32 25
-2.67954 2.61876 -11.7427 0.213093 -0.366994 0.905487 143 101 24
-2.75002 2.63584 -11.8869 0.2315 0.369793 0.899812 85 63 21
-2.87686 2.61308 -11.8474 -0.00354558 -0.0908896 0.995855 85 79 54
-2.89676 2.68291 -11.8161 0.332129 -0.232316 0.914177 84 77 53
-3.22369 2.51809 -11.6165 0.229625 -0.324375 0.917635 196 171 125
-3.26496 2.39325 -11.3995 0.617145 -0.239234 0.749599 196 172 126
-6.51937 1.00531 -8.90468 -0.535613 0.315682 0.783239 166 144 100
-6.61847 0.948501 -8.78472 -0.257325 0.159062 0.953144 162 142 98
-6.68382 0.942331 -8.80236 -0.224064 0.244498 0.943407 156 138 92
-6.77797 0.899023 -8.75174 -0.0699773 -0.159905 0.984649 137 121 82
-7.56681 0.776685 -8.67059 -0.500704 -0.11103 0.858468 60 57 46
-7.65266 0.772078 -8.69567 -0.391013 -0.0983044 0.91512 106 103 93
-8.04439 0.650654 -8.46309 0.0514917 -0.136128 0.989352 118 124 135
-8.11462 0.627333 -8.40286 -0.0798506 -0.307733 0.948116 120 124 138
-8.13002 0.626523 -8.40188 0.674296 -0.169088 0.718842 120 125 140
14.2522 -0.0518444 2.58707 -0.979291 0.180971 -0.0907638 157 141 51
14.2502 0.0110638 2.45257 -0.933547 0.142409 -0.328952 167 152 83
14.2834 0.0844012 2.31829 -0.913951 0.0722761 -0.399336 87 73 27
14.4073 0.157306 2.21896 -0.769564 0.142098 -0.622559 130 115 76
14.5908 0.125451 2.19373 -0.699955 0.125944 -0.702994 141 125 83
14.4678 0.214246 2.11401 -0.699599 0.0777504 -0.710293 142 126 77
14.517 0.17852 2.10821 -0.761026 0.0385685 -0.647574 144 128 76
13.8608 0.0754344 1.87314 -0.505862 -0.842167 0.186701 149 134 83
13.8916 0.228189 1.87604 -0.472956 -0.875395 0.0999826 147 130 79
17.1207 0.531878 2.41209 -0.472727 -0.682627 -0.557269 167 145 89
11.713 0.894112 -0.946789 -0.746367 0.145151 -0.649513 165 149 97
11.852 0.884956 -1.03542 -0.63558 -0.117586 -0.763028 100 86 44
11.7688 0.937767 -1.03885 -0.857656 0.14827 -0.492384 110 96 52
11.7894 0.937883 -1.04408 -0.675583 0.205893 -0.707952 103 89 46
11.893 0.890422 -1.00566 -0.608779 -0.360122 -0.706895 119 105 59
11.4213 1.10791 -1.62822 -0.832381 0.279669 0.478463 137 118 73
10.5041 0.973292 -1.85652 -0.69176 0.147499 -0.706903 136 115 68
10.5333 0.972133 -1.85219 -0.691781 0.147523 -0.706878 136 115 68
10.7123 0.994546 -1.83536 -0.691913 0.147184 -0.706819 136 115 68
10.2789 0.954243 -1.90191 -0.675716 0.205338 -0.707986 136 116 73
6.20618 1.32621 -4.24271 -0.801196 0.534727 0.268611 98 62 10
6.28403 1.35074 -4.52234 -0.995847 0.0866688 -0.0278722 105 70 17
6.32092 1.41984 -4.6593 -0.723262 0.645614 -0.245101 97 64 16
5.55778 1.58696 -5.31443 -0.474773 -0.389679 0.789139 95 79 36
5.41977 1.77471 -5.80497 -0.980844 -0.0398516 0.190677 89 75 35
5.13516 1.7384 -5.68368 -0.742052 0.136855 -0.656224 95 80 39
7.68576 2.84169 -7.7039 -0.761634 -0.111071 -0.638418 53 44 20
7.22207 2.70918 -7.68569 -0.827422 -0.13123 -0.546032 94 85 61
7.79124 2.98417 -7.87125 -0.792521 -0.0258684 -0.609296 104 95 66
8.01026 2.9642 -8.01867 -0.810331 0.192852 -0.553328 105 94 63
7.92188 2.98377 -8.15698 -0.817919 0.209558 -0.535811 85 71 41
11.712 5.03263 -11.7444 -0.818053 -0.121058 -0.562259 109 91 57
6.55935 3.66176 -10.2581 -0.781087 -0.463407 0.418517 102 86 54
9.94173 5.34708 -13.1261 -0.931551 0.233204 -0.27898 106 91 58
4.69245 4.55972 -13.6838 -0.846645 -0.413339 -0.335175 99 84 55
4.68647 4.65462 -13.927 -0.710085 -0.692349 0.128186 100 85 54
4.67256 4.76081 -13.7957 -0.650954 -0.627879 0.426646 100 85 55
4.55632 4.70837 -14.1702 -0.665828 -0.658131 0.351478 97 82 52
4.63501 4.68972 -14.061 -0.691611 -0.633269 0.347339 98 83 53
4.61748 4.8285 -14.1388 -0.58385 -0.811208 0.0325638 97 82 52
4.64991 4.84667 -14.1668 -0.584476 -0.81139 0.00590369 97 82 51
4.63263 4.83748 -14.1694 -0.579079 -0.8148 0.0277188 97 82 52
4.65091 4.78403 -13.9817 -0.686014 -0.719372 0.10904 100 85 54
4.47087 4.70953 -13.7785 -0.228667 -0.948784 0.217992 101 86 55
3.99227 4.68933 -13.8481 -0.168899 -0.401868 0.899986 93 78 48
4.29803 4.75258 -13.9297 -0.255408 -0.44716 0.857213 96 81 51
3.40585 4.51744 -13.8365 0.181672 -0.881145 0.436553 95 80 50
3.21581 4.46603 -13.9849 0.124395 -0.926239 0.35582 95 80 51
3.01877 4.49885 -13.8808 0.133169 -0.925491 0.354587 92 78 49
2.75933 4.39957 -13.9338 0.141703 -0.874782 0.463333 91 77 48
2.42936 4.31054 -13.6551 0.370941 -0.578516 0.726445 90 76 48
2.692 4.43287 -14.1845 0.38546 -0.52789 0.756804 87 73 46
2.71531 4.46596 -14.2722 0.394819 -0.449574 0.80125 88 74 46
0.877356 4.10974 -13.7506 0.287832 -0.368241 0.884054 55 47 29
0.833615 4.02838 -13.8929 0.466021 -0.43449 0.770742 134 121 93
0.544994 3.92567 -13.7172 0.30531 0.123228 0.944246 172 155 122
0.572189 4.05211 -13.7673 0.180689 0.229768 0.956325 151 138 107
0.536762 3.99777 -13.8496 0.037102 0.293678 0.955184 156 143 112
0.389117 3.92411 -13.7865 -0.268261 -0.0811703 0.959921 89 78 58
0.371066 3.90998 -13.7666 0.371647 0.00498076 0.928361 83 73 53
0.0619241 3.95579 -13.8997 -0.542897 -0.0435261 0.838671 34 33 26
0.130905 4.07747 -13.8464 -0.110475 -0.305322 0.945819 31 32 29
-2.62841 2.69637 -11.7002 0.196829 -0.343698 0.918221 144 101 21
-2.71896 2.71192 -11.7092 0.140903 -0.362434 0.921297 141 101 26
-2.63081 2.84079 -11.7676 0.0991513 -0.404526 0.909136 144 101 21
-2.84518 2.6805 -11.6316 0.112752 -0.443805 0.889002 90 66 22
-3.30675 2.48271 -11.3505 0.171568 -0.908618 0.380759 198 173 126
-3.13335 2.7192 -11.9459 -0.920262 -0.370212 0.126731 196 170 124
-6.27006 1.89099 -10.834 -0.58457 0.405844 0.702545 163 140 101
-6.5389 1.14489 -9.05015 -0.393714 0.527879 0.752551 167 145 100
-6.7093 1.06464 -8.95257 0.0905348 -0.175192 0.980363 163 141 97
-7.22678 0.905137 -8.69182 0.231865 -0.329871 0.915109 47 38 21
-7.24216 0.911812 -8.74761 0.711311 -0.151189 0.686424 35 28 16
-7.26676 0.899625 -8.73632 0.446024 -0.136865 0.884494 32 25 15
-7.31274 0.935722 -8.75134 0.258255 -0.141806 0.955613 34 26 13
-7.40562 0.860285 -8.70102 -0.362873 0.0168333 0.931687 27 22 16
-7.47754 0.835665 -8.67376 -0.734547 0.043959 0.677132 29 27 17
-7.55268 0.806702 -8.63588 -0.405464 -0.0702801 0.911405 40 37 26
-7.57501 0.825536 -8.60503 -0.509353 0.01128 0.860484 31 27 17
-7.7332 0.790518 -8.64848 0.214362 -0.147893 0.965493 66 64 53
-7.81451 0.783064 -8.60494 -0.0240119 -0.15076 0.988279 96 94 91
-7.93786 0.755121 -8.54843 0.677969 -0.16697 0.715876 74 72 65
14.1697 0.0552563 2.72435 -0.73466 -0.138434 -0.664162 210 197 78
14.2769 0.0929885 2.59087 -0.756462 0.485702 -0.438017 158 144 53
14.2506 0.157533 2.44649 -0.959846 0.154369 -0.234237 166 150 82
14.28 0.227304 2.31601 -0.902282 0.0424237 -0.429054 86 73 28
14.6801 0.269553 2.27297 -0.648787 -0.196504 -0.735161 131 116 74
14.439 0.305191 2.22161 -0.675487 0.0432243 -0.736104 132 117 77
13.6918 0.374238 1.8037 -0.457112 -0.887682 0.0554097 161 143 90
14.8707 0.494881 2.08433 -0.653343 -0.0540137 -0.755133 161 143 89
11.7699 0.930329 -0.784121 -0.424403 -0.904599 0.0397786 134 119 78
11.6521 0.961008 -0.866994 -0.937701 0.00836475 -0.347343 158 143 96
11.6101 1.01248 -0.781003 -0.913709 -0.0605804 -0.401829 136 118 77
11.6927 1.01189 -0.945533 -0.713121 0.062481 -0.698252 165 150 97
11.6809 1.1361 -0.944884 -0.714354 0.0450237 -0.698334 165 149 98
11.6644 1.08931 -0.86702 -0.923937 -0.0198779 -0.382028 154 139 92
11.665 1.08711 -0.866925 -0.923936 -0.0188531 -0.382082 154 139 92
11.7552 1.04513 -1.03801 -0.930073 0.181385 -0.319473 114 101 56
11.7477 1.06476 -1.02418 -0.730963 -0.0274572 -0.681865 125 111 64
11.7409 1.1918 -1.02372 -0.729437 -0.0448922 -0.682574 128 114 67
11.7622 1.20403 -1.13443 -0.857085 0.469896 -0.211196 76 63 28
11.6434 1.12414 -1.23675 -0.672956 0.166315 0.720743 122 106 70
10.7207 1.17656 -1.67378 -0.708736 0.160672 -0.686934 136 120 77
11.2287 1.22755 -1.63213 -0.69176 0.147482 -0.706906 137 117 71
11.1953 1.22281 -1.63454 -0.691873 0.147142 -0.706867 137 117 71
11.2478 1.23594 -1.62868 -0.692088 0.147733 -0.706533 137 117 71
11.2291 1.2276 -1.6321 -0.691768 0.147488 -0.706898 137 117 71
10.9463 1.21108 -1.6837 -0.691863 0.147514 -0.7068 138 122 78
10.2267 1.16237 -1.87591 -0.752819 0.154613 -0.639811 135 121 75
10.1758 1.14539 -1.88059 -0.740419 0.177274 -0.648347 135 121 75
10.1765 1.14122 -1.88015 -0.714858 0.161157 -0.680446 135 121 75
10.2719 1.15618 -1.8709 -0.691875 0.147481 -0.706795 135 120 74
10.1778 1.14568 -1.88047 -0.739877 0.176563 -0.649159 134 119 74
10.1712 1.16452 -1.90745 -0.692109 0.147502 -0.70656 133 119 73
10.1765 1.14122 -1.88015 -0.716169 0.16179 -0.678915 134 119 74
10.2761 1.16209 -1.86882 -0.697241 0.148548 -0.701277 133 119 74
10.2896 1.15878 -1.86974 -0.692168 0.147534 -0.706496 135 120 74
10.2593 1.15433 -1.87172 -0.693187 0.14777 -0.705447 133 119 74
10.1231 1.16553 -1.8839 -0.691852 0.147062 -0.706904 136 122 76
6.15064 1.36686 -4.04589 -0.642085 0.618153 0.453447 103 70 24
6.30245 1.51346 -4.24145 -0.841852 0.482804 0.241217 150 126 81
6.42145 1.4795 -4.39515 -0.710335 0.703164 0.0313753 120 91 45
6.23513 1.49401 -4.51548 -0.940815 0.191142 -0.279878 151 125 79
6.32243 1.71163 -4.95773 -0.772702 0.448044 0.449654 97 81 34
6.81528 2.04349 -5.38114 -0.404439 0.171822 0.89828 93 78 35
15.7709 5.67693 -11.4895 -0.157153 -0.829292 0.536263 62 39 22
7.26965 3.77092 -9.66327 -0.911331 -0.403313 -0.0825481 105 87 54
6.63453 3.81746 -10.3428 0.0425909 -0.795338 0.604668 103 88 55
4.52502 4.65318 -13.3424 -0.628857 -0.77312 0.0826171 102 86 56
4.30385 4.73866 -13.2902 0.0820244 -0.895578 0.437278 99 84 54
4.42962 4.73833 -13.5177 -0.409416 -0.894617 0.178994 100 85 55
4.36661 4.90444 -13.8222 -0.0157557 -0.972538 0.23221 96 80 50
3.90912 4.65644 -13.2835 -0.266474 -0.962722 -0.0464622 100 84 54
3.32169 4.43354 -12.9897 -0.0461196 -0.830541 0.555045 97 82 52
3.40997 4.52976 -13.3594 0.0456944 -0.8793 0.474071 98 83 52
3.35769 4.59501 -13.5657 0.321035 -0.648762 0.68996 96 81 51
3.15118 4.51907 -13.6655 0.138923 -0.90135 0.410205 96 81 52
2.64653 4.41061 -13.5345 0.27739 -0.792276 0.543464 94 79 50
2.57531 4.41915 -13.1936 0.317854 -0.710972 0.627286 95 80 50
2.55829 4.39858 -13.4513 0.321478 -0.715222 0.620572 95 80 51
1.10772 4.39928 -13.9102 0.415101 -0.230189 0.880173 85 76 52
0.455114 4.22913 -13.84 0.435981 -0.091644 0.895277 97 89 70
0.324358 4.13488 -13.771 0.448343 -0.114912 0.886445 62 56 43
-0.218955 4.04961 -13.6669 -0.367158 -0.402553 0.838538 64 48 21
-2.77161 2.78964 -11.6534 0.0234386 -0.317501 0.947968 139 100 28
-7.24846 1.0274 -8.84552 0.677352 -0.166137 0.716654 130 115 78
-7.27448 1.00666 -8.87608 0.619252 -0.176991 0.764984 77 67 44
-7.38994 0.933217 -8.7238 0.53895 -0.165726 0.825874 36 29 17
-7.48547 0.920626 -8.69705 0.684999 -0.148983 0.713148 31 26 16
-8.01908 0.772421 -8.55282 0.475522 -0.337873 0.812231 74 72 66
-8.18389 0.740135 -8.49097 0.507232 -0.294219 0.810031 32 31 30
14.3009 0.217838 2.80307 -0.505883 -0.860012 0.0667986 205 190 73
14.1406 0.198542 2.70788 -0.701032 -0.0234588 -0.712744 210 196 79
14.2656 0.2388 2.58147 -0.762711 0.462244 -0.45233 159 144 53
14.2714 0.304739 2.44548 -0.945963 0.15778 -0.283301 161 146 78
14.2819 0.371488 2.31373 -0.937757 0.0773922 -0.33856 87 73 27
14.4337 0.457205 2.22686 -0.594066 -0.198611 -0.779512 132 117 74
14.5716 0.434451 2.2293 -0.710192 -0.0178543 -0.703782 141 127 80
11.449 1.09801 -0.701405 -0.736188 0.358634 -0.573942 120 103 66
11.9002 1.18486 -0.787049 -0.606064 -0.693454 0.389626 135 121 78
11.4644 1.13523 -0.791295 -0.69226 0.146419 -0.706639 113 97 60
11.6162 1.2064 -0.86556 -0.788887 -0.013809 -0.614383 145 128 85
11.61 1.2058 -0.861214 -0.775614 -0.00294466 -0.631201 138 122 80
11.67 1.26102 -0.944347 -0.705507 0.0575628 -0.706362 164 148 98
11.7304 1.31616 -1.02719 -0.728394 0.0222411 -0.684798 128 114 67
11.745 1.31428 -1.14285 -0.734053 0.641051 0.224098 75 62 26
10.9649 1.2976 -1.56692 -0.67949 0.165692 -0.71473 130 117 81
10.178 1.31515 -1.71383 -0.691779 0.147544 -0.706875 238 231 189
9.85172 1.47932 -2.28408 -0.691922 -0.329624 0.642333 117 91 40
9.97799 1.58917 -2.35195 -0.791335 -0.0566736 0.60875 118 91 38
5.93087 1.38025 -3.87678 -0.692453 0.71426 -0.101693 138 115 66
6.46873 1.71668 -4.24708 -0.862954 0.461652 0.205395 82 68 29
6.22931 1.57997 -4.37882 -0.962822 0.256262 0.0854656 113 97 53
6.29454 1.66144 -4.51951 -0.968459 0.158093 -0.192598 85 71 31
6.56981 1.79355 -4.68499 -0.955061 0.27727 0.104783 82 67 27
6.93111 1.92058 -4.73456 -0.818974 0.367296 0.440879 88 74 33
6.83584 1.96127 -4.85029 -0.719786 0.149023 -0.678012 89 75 35
5.32138 2.02 -5.80304 -0.940488 -0.199496 -0.275108 94 79 40
7.41085 3.19131 -7.52473 -0.878971 0.125153 -0.460159 95 86 53
7.74407 3.25645 -7.84269 -0.777258 -0.0123348 -0.629062 96 86 59
13.4563 5.58542 -10.7902 -0.417755 -0.842251 -0.340727 64 22 16
6.80472 3.78609 -9.46024 -0.941369 -0.336898 0.0180169 102 85 52
6.84746 3.90709 -9.64556 -0.869036 -0.490473 -0.0649105 101 83 51
6.86723 4.01466 -9.83483 -0.83038 -0.551065 -0.0824384 98 81 49
8.87218 5.27681 -12.494 -0.833812 -0.547318 -0.0721196 98 83 51
7.88157 4.9946 -12.0058 -0.0638724 -0.969428 0.236916 102 86 54
7.62517 4.90917 -12.0539 0.101376 -0.78362 0.612914 101 85 53
7.6378 5.03981 -12.1 -0.313558 -0.944348 0.0994419 101 85 53
4.15133 4.63148 -12.873 -0.19933 -0.979919 0.00504774 101 85 54
3.72757 4.63065 -12.8592 0.0420742 -0.956265 0.289461 96 80 51
4.06338 4.6641 -13.0926 0.205098 -0.828856 0.520512 97 82 52
3.72865 4.63768 -12.868 0.0300556 -0.961011 0.274872 97 81 51
3.4751 4.56749 -12.9501 -0.048415 -0.98073 0.189272 96 80 50
3.23073 4.4869 -12.9933 -0.302618 -0.906422 0.294655 98 82 52
3.27806 4.55672 -13.0342 -0.0874994 -0.877489 0.471547 98 82 52
3.18094 4.63705 -13.4766 0.221234 -0.82309 0.523048 98 83 53
2.55164 4.45686 -13.2024 0.307797 -0.740548 0.597369 95 80 50
1.0048 4.47822 -13.9616 0.466304 -0.368692 0.804132 79 70 48
0.967343 4.45593 -13.9284 0.401661 -0.0663787 0.91338 83 73 50
0.0493301 4.1573 -13.608 -0.428658 -0.58271 0.690436 31 31 27
-0.0381894 4.26605 -13.6467 -0.291064 0.417436 0.860831 31 32 28
-0.225554 4.19857 -13.5706 -0.331796 -0.606556 0.722496 48 38 21
-1.11154 3.84321 -13.1226 0.543554 -0.287838 0.788478 138 93 19
-1.14522 3.80719 -13.1118 0.545117 -0.293585 0.785274 138 94 19
-1.29812 3.82275 -12.9868 0.549478 -0.279697 0.787302 142 99 20
-3.0524 2.88805 -11.7132 0.474231 -0.272665 0.837113 166 153 121
-3.09296 2.83095 -11.583 0.357733 -0.299683 0.88443 173 158 125
-7.36346 1.01414 -8.7178 0.528616 -0.190096 0.827302 132 118 78
-7.36316 1.00632 -8.70916 -0.414743 0.147388 0.897923 131 117 78
-7.36316 1.00632 -8.70916 -0.414743 0.147388 0.897923 131 117 78
-7.45094 1.02994 -8.77217 0.521252 -0.236926 0.819856 124 110 76
-7.55679 1.06298 -8.91688 -0.51224 0.178386 0.840112 56 47 27
-7.62566 0.892211 -8.60699 0.691006 -0.147915 0.707554 32 25 16
-7.70026 0.853536 -8.54105 0.690575 -0.148072 0.707941 30 26 17
-7.9837 0.880887 -8.6545 0.463288 -0.255561 0.848559 47 42 32
14.0525 0.343131 2.68755 -0.680197 0.00337745 -0.733022 211 198 81
14.0275 0.297285 2.69316 -0.727942 0.0954297 -0.678965 212 200 81
14.0275 0.297285 2.69316 -0.727942 0.0954297 -0.678965 212 200 81
14.2241 0.381204 2.56453 -0.760227 0.514216 -0.397035 156 143 51
14.2517 0.449261 2.43666 -0.954815 0.119557 -0.272093 160 146 76
14.2773 0.532468 2.57428 -0.729257 0.617128 -0.295529 160 146 55
14.2536 0.595537 2.43257 -0.948635 0.113186 -0.295433 158 143 76
14.3049 0.519546 2.31475 -0.697055 -0.0865558 -0.711774 74 62 19
14.375 0.665117 2.31033 -0.738389 0.0625427 -0.671468 69 56 15
14.4569 0.60593 2.22919 -0.494298 -0.379749 -0.781959 131 116 71
14.4434 0.604661 2.22624 -0.596696 -0.224069 -0.77055 133 117 73
11.7913 1.43171 -0.769465 -0.36858 -0.92952 -0.0119174 117 101 65
11.5035 1.25898 -0.786521 -0.719595 -0.0189745 -0.694135 102 87 53
11.6377 1.38507 -0.949115 -0.437569 -0.889663 0.130509 162 147 98
11.6464 1.34017 -0.858217 -0.896997 -0.192397 -0.39797 144 127 85
11.7945 1.45465 -1.01856 -0.505376 -0.483024 -0.71504 131 118 75
10.0357 1.5746 -1.93674 -0.744126 0.141658 -0.652847 148 128 77
10.0628 1.49794 -2.01732 -0.812822 0.489556 -0.315681 108 87 35
9.80259 1.57576 -2.28433 -0.755274 -0.316248 0.574063 120 90 38
6.58842 1.90437 -4.27141 -0.702494 0.158028 -0.693923 80 65 33
7.07604 2.00558 -4.61049 -0.967442 0.147773 -0.205473 84 70 33
7.07604 2.00558 -4.61049 -0.967442 0.147773 -0.205473 81 68 32
7.6225 3.52262 -7.80995 -0.770184 -0.0507997 -0.635795 94 83 58
7.66349 3.5393 -8.1151 -0.806271 0.0581577 -0.588681 75 49 25
7.65878 3.53736 -8.11383 -0.810454 0.053032 -0.583397 75 49 25
11.4641 5.09886 -9.88758 -0.663342 0.564979 0.49069 66 26 18
12.7579 5.57455 -10.5825 -0.548684 -0.773223 -0.317919 62 26 16
12.9548 5.55855 -10.8356 -0.406851 -0.906585 -0.112138 61 26 16
6.73665 3.95736 -9.46206 -0.92119 -0.388702 -0.0179008 98 80 49
6.81792 4.52504 -10.51 -0.317295 -0.94141 0.114328 105 87 54
8.60149 5.30918 -11.9947 -0.00531912 -0.900231 0.43538 103 88 55
8.2207 5.21076 -11.9882 -0.233988 -0.949551 0.208813 102 86 54
8.19308 5.3452 -11.9724 -0.231392 -0.972847 -0.00523424 96 81 49
7.6914 5.16576 -11.8869 -0.340902 -0.914794 0.216652 99 84 52
7.1255 5.07463 -11.7094 0.112996 -0.790782 0.601578 103 87 54
6.61635 4.88171 -11.6763 -0.180898 -0.695286 0.695596 98 83 51
5.47263 4.39493 -11.295 -0.93334 0.331734 -0.137222 100 84 52
6.6811 5.00446 -12.0762 -0.3966 -0.902951 -0.165493 96 80 49
6.62838 4.92342 -11.9338 -0.325999 -0.939452 -0.105618 102 86 54
4.21984 4.90535 -12.7291 0.24352 -0.43636 0.866192 101 85 53
3.35121 4.47189 -12.1055 0.017381 -0.662577 0.748792 100 85 54
2.81492 4.21102 -11.8192 -0.428894 -0.520716 0.738177 98 83 51
2.76538 4.72725 -12.9603 0.0971268 -0.894579 0.436229 97 82 51
2.7291 4.49746 -12.7939 0.237413 -0.73876 0.630769 99 83 53
2.4716 4.55303 -12.9166 0.322242 -0.711429 0.624523 97 82 52
2.39022 4.65754 -12.9098 0.335311 -0.694858 0.636191 97 82 52
-0.128862 4.40077 -13.4693 -0.648757 -0.386298 0.655659 40 38 27
-0.181338 4.30777 -13.5706 -0.624029 -0.252569 0.739457 33 31 25
-0.38964 4.33817 -13.4072 0.209262 -0.327145 0.921513 62 52 30
-0.33982 4.27366 -13.5522 0.203581 -0.117261 0.972011 72 54 23
-0.469599 4.35522 -13.547 -0.319467 -0.387219 0.864871 100 74 32
-0.432036 4.28762 -13.6911 -0.382052 -0.630521 0.675632 120 85 26
-0.852446 4.31147 -13.5114 0.533538 -0.313786 0.785414 134 90 19
-2.7816 3.1301 -11.5415 0.000272304 -0.368717 0.929542 142 99 22
-2.7193 3.05747 -11.5975 -0.126502 0.14012 0.98202 143 100 21
-3.23506 2.92901 -11.5053 0.386013 -0.325825 0.863036 190 169 127
-7.2368 1.07876 -8.76756 0.469789 -0.241785 0.849022 151 131 86
-7.46895 1.05751 -8.82277 0.686341 -0.14892 0.71187 126 112 76
-7.53971 1.08444 -8.78841 -0.673182 0.20117 0.711587 128 111 70
-7.54151 1.01435 -8.71397 0.686505 -0.14885 0.711726 106 94 66
-7.60067 0.991192 -8.66781 0.502111 -0.244729 0.829453 71 58 37
-7.69555 0.992548 -8.62727 0.684056 -0.188315 0.704702 88 76 51
-7.76475 0.964342 -8.59639 -0.0193804 -0.297447 0.954542 42 32 19
-7.90754 0.87077 -8.54448 0.251437 0.256182 0.933354 30 26 17
-8.07639 0.850483 -8.55274 0.570973 -0.152855 0.806614 50 47 35
-8.14164 0.807884 -8.45662 0.547495 -0.246029 0.799824 60 58 46
15.4949 0.561175 3.25559 -0.508476 -0.855857 0.0946563 179 165 58
14.2534 0.521604 2.79078 -0.709995 -0.635101 0.304225 209 194 78
14.1937 0.645127 2.73302 -0.823313 0.205838 -0.528949 210 197 82
14.2935 0.681372 2.57484 -0.73038 0.564323 -0.384817 161 148 60
14.2511 0.742067 2.4268 -0.948102 0.126058 -0.291912 155 140 73
14.3661 0.813744 2.31096 -0.789875 -0.0607469 -0.610252 68 56 15
14.3743 0.819676 2.32077 -0.692101 0.148517 -0.706357 69 56 15
14.4503 0.766359 2.22548 -0.564223 -0.230591 -0.792767 133 118 74
14.436 0.76491 2.22236 -0.622715 -0.163948 -0.76508 132 118 74
14.5039 0.901683 2.21213 -0.727348 -0.0520675 -0.684291 140 124 78
14.5115 0.955771 2.08539 -0.760189 0.0454867 -0.648107 159 140 84
14.5026 0.800793 2.08548 -0.693802 0.14304 -0.705818 156 139 83
14.1473 0.826885 1.87834 -0.487098 -0.852996 0.187437 163 144 83
14.075 0.96962 1.85928 -0.510524 -0.798887 0.318033 164 144 86
11.7682 1.49747 -0.847647 -0.46886 -0.684715 0.557975 145 129 85
9.84488 1.56648 -1.70898 -0.808529 0.0882538 -0.581801 225 205 146
9.95832 1.6156 -1.77761 -0.679786 0.165574 -0.714476 212 189 131
9.90705 1.60624 -1.77844 -0.717534 0.146377 -0.680969 212 189 131
9.98486 1.67954 -1.94131 -0.790123 0.147491 -0.59494 161 136 80
7.14294 2.13188 -4.4797 -0.691964 0.147675 -0.706667 77 65 32
7.80642 2.3457 -4.68892 -0.691752 0.147396 -0.706932 83 70 34
6.21094 3.09204 -7.10416 -0.816872 0.228902 -0.529457 100 91 54
7.39782 3.47126 -7.52368 -0.813749 0.123102 -0.56803 95 88 52
7.51884 3.73716 -7.79343 -0.803219 -0.180156 -0.567788 98 87 62
11.4594 5.40648 -9.90431 -0.882439 -0.203229 -0.424263 80 35 24
6.69704 4.55344 -10.1271 -0.239128 0.0521134 0.969589 100 85 50
7.64876 5.19943 -11.6206 -0.253934 -0.920513 0.296941 98 82 50
7.96117 5.46763 -11.7759 -0.0953078 -0.981651 0.165162 101 85 51
7.28241 5.14799 -11.6724 -0.170424 -0.984978 0.027808 102 86 54
