ply
format ascii 1.0
element vertex 729
property float x
property float y
property float z
property float nx
property float ny
property float nz
property uchar diffuse_red
property uchar diffuse_green
property uchar diffuse_blue
end_header
10.6528 -3.87598 1.58816 -0.755972 0.603863 0.252697 112 97 22
10.6672 -3.87629 1.61116 -0.714658 0.661908 0.226144 112 97 22
10.5769 -3.91103 1.46276 -0.64412 0.7425 0.183855 114 100 24
10.4763 -3.93731 1.3046 -0.640669 0.744399 0.188185 116 102 27
18.2306 -4.38553 -11.8962 -0.149751 -0.404527 0.902182 215 197 87
18.3677 -4.46777 -12.3287 -0.0366954 -0.213098 0.976341 205 186 83
18.0231 -4.35161 -11.9652 -0.0223542 -0.231792 0.972509 207 189 85
29.8602 -5.37071 -30.5741 0.129804 0.118463 0.984438 136 118 88
21.8449 -4.33357 -25.4257 0.153393 0.319534 0.935077 153 136 108
24.9802 -4.6139 -28.4925 0.0657267 0.593001 0.802515 146 129 89
24.9802 -4.6139 -28.4925 0.0657267 0.593001 0.802515 146 129 89
21.3784 -4.08514 -25.6136 0.0606787 0.598324 0.798954 196 180 149
21.1648 -4.12106 -25.0263 0.160346 -0.071006 0.984504 167 152 121
20.0288 -3.8551 -24.3809 0.158224 -0.0406714 0.986565 202 185 154
19.2652 -3.82152 -24.4023 0.0572831 0.601288 0.796977 241 224 193
19.2618 -3.82104 -24.3994 0.0645977 0.585701 0.807949 236 218 187
13.6602 -2.90808 -20.6866 0.314244 0.347892 0.883302 127 107 72
11.9087 -2.58677 -20.2784 0.216577 0.0185841 0.976089 197 176 135
9.24289 -2.31653 -18.6628 0.105174 -0.275851 0.955429 227 208 161
8.48924 -2.28941 -18.1745 0.173811 0.0989845 0.979792 222 202 156
7.61877 -2.09196 -17.4958 0.257417 -0.0930566 0.961809 209 186 143
7.76513 -2.01855 -17.8243 0.257151 0.0528853 0.964923 205 182 139
7.85393 -2.08264 -18.0071 0.284816 0.135856 0.948906 189 163 121
3.75155 -1.54022 -15.982 0.359506 -0.221098 0.906571 138 102 40
3.67093 -1.56779 -15.8105 0.316586 -0.169388 0.933317 138 102 40
-1.91407 -0.826155 -10.0593 0.52934 -0.28083 0.800583 145 105 25
7.93095 -4.06459 11.8745 -0.359571 0.108507 -0.926788 244 243 218
8.11061 -4.1021 11.9797 -0.379185 0.169473 -0.909669 246 245 223
8.25459 -4.09561 11.8915 -0.370298 0.153156 -0.9162 241 238 212
8.73897 -4.17971 11.6297 -0.293006 -0.51117 -0.807993 244 240 212
8.81347 -4.0247 10.2351 -0.367393 0.13761 -0.919829 152 138 74
8.89985 -4.00979 10.1428 -0.327498 0.121993 -0.936943 159 144 83
8.94787 -4.11639 9.9521 -0.343587 0.138944 -0.928786 139 122 32
9.92856 -4.26739 9.84065 -0.425418 0.119072 -0.89713 137 121 29
10.0475 -4.25014 9.69068 -0.158626 -0.13513 -0.978048 132 117 24
10.1099 -4.21568 9.29776 -0.575743 -0.138784 -0.805766 134 121 26
10.7995 -4.31681 9.29754 -0.765587 -0.321335 -0.557334 130 116 21
11.2551 -4.36477 9.23513 -0.572335 -0.617927 -0.539072 143 130 33
10.745 -4.27438 9.05502 -0.645611 -0.603613 -0.467802 135 122 25
11.1445 -4.41081 8.95272 -0.358892 -0.4309 -0.827962 133 119 25
11.4122 -4.32626 8.66962 -0.590891 0.183294 -0.785653 137 125 29
12.0342 -4.53484 8.64815 -0.958028 -0.107022 -0.265948 135 122 29
11.9649 -4.47201 8.59091 -0.451371 0.290882 -0.843595 136 123 28
11.9649 -4.47201 8.59091 -0.451371 0.290882 -0.843595 136 123 28
12.1134 -4.48532 8.20561 -0.991734 -0.0496827 -0.1183 131 118 29
12.1855 -4.45183 7.80374 -0.995913 -0.00396648 -0.0902315 136 121 37
12.3223 -4.51076 7.71001 -0.473147 -0.592111 -0.652332 151 136 59
12.415 -4.51757 7.54148 -0.480664 -0.595503 -0.643691 174 158 86
12.4131 -4.4179 7.59598 -0.988716 -0.0364246 -0.145305 134 120 31
12.532 -4.44366 7.25003 -0.475304 -0.375489 -0.795672 160 144 69
10.3474 -4.03711 5.21193 -0.528551 0.797006 -0.292258 218 194 138
10.3033 -3.93681 5.33984 -0.512065 0.800649 -0.311047 239 218 154
11.6317 -4.14682 3.59668 -0.87644 0.407832 0.25598 197 170 119
11.7644 -4.15462 3.49064 -0.93456 0.034238 0.354154 202 175 121
11.4845 -4.11224 3.42308 -0.934972 0.236102 0.264734 200 173 121
11.1414 -3.91049 2.73476 -0.852075 0.292605 0.433994 218 194 127
10.9937 -3.85814 2.50603 -0.807861 0.535632 0.245883 200 180 108
11.0488 -3.86332 2.53808 -0.812584 0.527046 0.248856 201 181 108
10.9162 -3.91556 2.35592 -0.808903 0.530771 0.252899 220 198 131
10.9947 -3.83616 2.26484 -0.747822 0.625328 0.222995 127 110 34
10.8405 -3.87439 2.10329 -0.793782 0.553107 0.25295 156 138 63
10.856 -3.87722 2.07842 -0.840759 0.464574 0.27802 146 128 52
10.8613 -3.78192 1.95865 -0.61319 0.694143 0.377046 111 96 20
10.8435 -3.78295 1.95298 -0.63444 0.744747 0.206972 111 96 20
10.769 -3.83477 1.77184 -0.805666 0.525713 0.272999 111 98 22
19.5988 -4.42005 -12.6421 -0.051151 -0.189637 0.980521 219 202 88
19.2291 -4.15032 -12.3551 -0.0455431 -0.172623 0.983935 221 203 90
19.2474 -4.16708 -12.3692 -0.0418455 -0.160402 0.986164 221 203 90
16.7587 -3.86009 -11.1043 -0.420244 -0.102438 0.90161 212 193 87
16.7395 -3.90507 -11.3343 -0.454203 -0.138186 0.880116 192 175 78
28.2887 -4.81517 -29.4323 0.130402 0.125956 0.983428 154 136 108
21.964 -3.79439 -25.7538 0.0821131 0.497745 0.863428 155 140 113
21.964 -3.79439 -25.7538 0.0821131 0.497745 0.863428 155 140 113
21.6529 -3.73908 -25.7418 0.154678 -0.0747356 0.985134 191 176 145
19.9313 -3.428 -24.4365 -0.109856 -0.143621 0.983517 222 205 173
20.2853 -3.64086 -24.7585 -0.097434 0.245799 0.964411 209 191 159
19.2965 -3.42159 -24.4806 0.141357 -0.040605 0.989126 243 228 194
19.298 -3.51668 -25.1657 -0.00522032 0.0628803 0.998007 167 150 122
16.1136 -2.9306 -22.5246 0.173003 0.141103 0.974761 128 116 96
12.269 -2.58519 -20.3239 0.208154 0.0715279 0.975477 185 165 125
12.1661 -2.57309 -20.2178 0.202993 0.16803 0.964655 185 164 124
9.54529 -2.10604 -18.6488 0.216292 -0.167719 0.961815 217 196 152
9.22675 -2.05189 -18.4958 0.150448 -0.402029 0.903182 221 201 156
8.49391 -2.04024 -18.1493 0.201305 -0.290893 0.935338 226 206 160
8.49391 -2.04024 -18.1493 0.201305 -0.290893 0.935338 226 206 160
3.70324 -1.28995 -15.9245 0.343231 -0.194391 0.918915 136 101 39
-0.466861 -0.838531 -12.8782 -0.892741 0.376314 0.247792 122 92 30
-0.0780608 -0.838535 -14.2103 -0.234482 0.792039 0.563642 120 93 43
-0.107749 -0.862122 -14.1497 -0.323491 0.820112 0.471986 143 109 36
-1.42729 -0.766972 -11.1815 0.559359 -0.196703 0.805249 152 111 30
-1.85716 -0.779134 -10.323 0.445841 -0.27458 0.851957 135 97 26
-1.90729 -0.805899 -10.2311 0.565027 -0.182513 0.804633 147 108 26
7.31384 -3.78142 11.5217 -0.327607 0.121093 -0.937022 140 131 61
8.72182 -3.87582 10.2709 -0.327882 0.12246 -0.936748 248 246 217
9.0758 -4.01309 10.0951 -0.336586 0.122981 -0.933588 162 149 91
9.23995 -3.97421 10.1082 -0.287634 0.227547 -0.930317 221 213 175
9.39855 -3.97201 10.0502 -0.344343 0.362502 -0.866037 222 217 180
9.63465 -4.09851 9.85784 -0.409154 0.014903 -0.912344 143 128 51
9.78209 -4.09249 9.76685 -0.330039 -0.102597 -0.938375 145 129 53
9.90247 -4.06494 9.61575 -0.361127 -0.186677 -0.913641 147 133 58
10.0257 -4.03843 9.46025 -0.238994 -0.351064 -0.905337 143 129 58
10.2496 -4.11703 9.53482 -0.27433 -0.428876 -0.860702 134 121 43
10.2914 -4.16111 9.31151 -0.617029 -0.0130119 -0.786833 137 122 30
10.5069 -4.14092 9.09193 -0.838267 -0.374567 -0.396242 139 123 32
11.4038 -4.3021 9.06148 -0.222276 0.0203894 -0.974771 145 129 33
11.0753 -4.21833 8.89589 -0.676893 -0.146426 -0.721371 140 124 31
11.2978 -4.21004 8.75308 -0.609788 0.163171 -0.775586 143 128 32
11.6878 -4.252 8.46234 -0.440684 0.209342 -0.872911 141 127 30
11.9125 -4.27853 8.44664 -0.343305 0.0395985 -0.938389 141 127 31
12.1575 -4.217 7.55303 -0.978545 0.104213 0.177735 137 125 27
12.1257 -4.30211 7.45584 -0.470538 -0.578797 -0.666024 134 120 28
12.328 -4.2722 7.28507 -0.65165 -0.386979 -0.652379 134 121 28
10.6776 -3.95752 5.81565 -0.307386 0.278702 -0.909856 234 220 151
11.6045 -4.09196 5.70715 -0.446404 0.679361 -0.582402 231 213 147
11.6334 -4.05115 5.57617 -0.485504 0.764729 -0.423647 212 192 130
11.784 -4.07082 5.50643 -0.522369 0.580292 -0.624814 213 192 129
11.0277 -4.01888 5.37113 -0.3208 0.891966 -0.318567 217 196 137
11.2463 -4.04398 5.23742 -0.495786 0.763581 -0.413692 211 188 131
11.8265 -4.06314 5.29192 -0.443589 0.706048 -0.552019 209 186 125
11.7077 -3.98946 3.57591 -0.928626 -0.325971 0.177191 210 183 126
11.4013 -3.86807 3.2844 -0.904521 0.336193 0.262327 211 186 125
11.2615 -3.82612 2.92092 -0.871907 0.248141 0.422142 205 183 113
11.322 -3.76744 2.90132 -0.864557 0.428596 0.262386 137 119 39
11.1868 -3.81515 2.683 -0.798198 0.553504 0.237725 154 136 58
11.1129 -3.70475 2.50799 -0.786044 0.588855 0.188109 119 105 20
11.049 -3.76306 2.36591 -0.649085 0.664319 0.370635 114 98 19
10.9677 -3.73866 2.10508 -0.786045 0.572026 0.234347 114 101 22
20.7565 -4.1748 -11.4972 -0.392276 -0.683719 0.615343 238 228 109
19.015 -3.99315 -12.1842 -0.0317893 -0.118288 0.99247 217 200 86
16.4959 -3.75547 -10.7125 -0.500066 -0.474362 0.72451 216 197 89
15.7746 -3.52218 -10.8314 -0.58106 -0.133354 0.802861 197 179 82
15.5035 -3.59916 -10.7319 -0.424019 0.0621437 0.903519 191 173 79
21.3186 -3.51127 -25.4452 0.14022 -0.103351 0.984712 195 181 151
21.84 -3.27993 -25.7611 0.127474 0.330276 0.935237 182 168 142
21.3583 -3.28198 -25.7129 0.138393 0.0760743 0.987451 216 202 168
20.1105 -3.23124 -25.0937 0.105462 -0.103665 0.989005 241 227 192
20.1097 -3.22831 -25.034 0.143764 0.111397 0.983322 240 226 192
19.5565 -3.20237 -25.0533 -0.258558 -0.410645 0.874368 231 215 181
13.5181 -2.42582 -20.8556 0.138192 0.665661 0.733347 161 137 90
14.0019 -2.50046 -21.4143 0.174766 0.412385 0.894089 149 125 78
12.2446 -2.23843 -20.1603 0.196246 -0.0833094 0.977009 181 161 122
12.2886 -2.259 -20.4897 0.171973 0.00367783 0.985095 191 170 130
11.7807 -2.2388 -20.2615 -0.0360493 -0.671672 0.739971 196 175 135
11.5198 -2.12771 -20.3646 0.214622 -0.102341 0.971321 206 184 142
9.94927 -2.10243 -18.6761 0.22414 -0.161015 0.961164 206 185 143
9.55467 -2.00414 -18.8024 0.227159 -0.155613 0.961344 217 196 151
9.48065 -1.90744 -18.8818 0.161745 -0.417979 0.893942 219 199 153
7.41868 -1.71543 -17.4072 0.286027 0.0640853 0.956076 201 177 135
3.96399 -1.28574 -16.2854 0.310497 -0.246293 0.918113 127 95 40
0.0832533 -0.738466 -14.2001 -0.132332 0.857501 0.497173 70 53 17
-0.0956696 -0.770612 -13.8284 -0.32624 0.813733 0.481047 75 56 16
-0.396701 -0.713645 -13.2035 -0.914747 0.3217 0.244431 125 98 38
-0.394905 -0.714454 -13.2101 -0.909668 0.334485 0.246221 125 98 38
-0.122808 -0.711941 -14.2576 -0.11478 0.844552 0.523027 123 94 39
-1.29584 -0.680911 -11.512 0.550151 -0.249698 0.79686 141 100 28
4.21002 -3.10648 10.3022 -0.14764 0.311713 -0.938636 125 109 32
4.53483 -3.18285 10.2799 0.0193374 0.730265 -0.68289 129 118 42
6.96574 -3.59013 11.3879 -0.432291 -0.030445 -0.90122 134 116 25
6.7935 -3.55323 11.2787 -0.381124 -0.0137584 -0.924421 133 117 25
6.79369 -3.55327 11.2777 -0.381629 -0.00932435 -0.924269 133 117 25
8.00089 -3.85061 11.6246 -0.387488 0.232054 -0.89219 139 129 49
8.19795 -3.78249 11.1086 -0.266706 -0.21203 -0.940166 142 131 55
8.81462 -3.86285 10.1816 -0.32779 0.122373 -0.936792 246 245 216
8.93022 -3.85387 10.1045 -0.32767 0.122414 -0.936828 249 247 219
9.51955 -3.92954 9.826 -0.319486 -0.113866 -0.940725 233 230 195
9.59873 -3.87983 9.60306 -0.151067 -0.142889 -0.978142 238 235 200
9.78913 -3.89779 9.5949 -0.415142 -0.152026 -0.896964 241 238 207
10.1271 -3.96468 9.35375 -0.785563 -0.236249 -0.571907 190 182 134
10.2639 -3.97525 9.27322 -0.342003 -0.418034 -0.841594 182 172 119
11.8583 -4.17466 8.05346 -0.393662 0.236566 -0.888294 145 128 35
12.0015 -4.11591 7.77069 -0.472775 -0.247904 -0.845593 144 127 32
12.147 -4.14543 7.81462 -0.447838 0.115226 -0.886659 145 127 32
12.3656 -4.14866 7.42945 -0.510802 -0.673535 -0.534258 156 142 42
12.0133 -4.05634 7.16742 -0.464225 -0.577819 -0.671283 146 132 34
12.1099 -4.13217 7.09808 -0.537615 -0.120937 -0.834472 136 123 26
12.5229 -4.06694 6.94555 -0.947629 -0.306182 -0.0908418 156 143 45
11.7176 -3.86565 5.85452 -0.441096 0.289381 -0.849525 130 117 27
11.7912 -3.97753 5.73274 -0.548478 0.598051 -0.584387 145 131 49
11.662 -3.93572 5.58826 -0.430308 0.716005 -0.549702 154 137 63
11.9521 -3.96014 5.62736 -0.429884 0.788251 -0.440296 140 125 42
11.9162 -3.95815 5.50538 -0.406499 0.588641 -0.698757 153 137 57
11.5373 -3.80875 3.50105 -0.830641 0.393181 0.394265 208 183 118
11.4913 -3.68159 3.29848 -0.882686 0.23945 0.404388 134 117 35
11.3815 -3.75091 3.10341 -0.824704 0.385891 0.413462 157 139 62
11.3762 -3.62344 2.95918 -0.806268 0.419555 0.41702 120 106 19
11.2437 -3.70431 2.76341 -0.794321 0.471171 0.383472 118 102 18
16.4767 -3.43373 -10.8311 0.0096996 0.0243945 0.999655 210 193 81
15.3315 -3.19046 -10.2151 -0.00750062 -0.0823642 0.996574 204 186 77
14.6978 -3.10584 -10.4718 -0.280614 -0.0363423 0.959133 166 148 69
20.013 -2.90213 -24.5024 0.145092 0.234587 0.961206 217 199 169
20.0339 -2.90745 -24.5196 0.146643 0.221825 0.963997 216 199 169
20.0825 -2.91676 -24.7079 0.12985 0.215242 0.967889 228 213 181
20.0825 -2.91676 -24.7079 0.12985 0.215242 0.967889 228 213 181
20.0825 -2.91676 -24.7079 0.12985 0.215242 0.967889 228 213 181
20.4139 -2.80533 -24.9664 0.17677 0.0326429 0.983711 231 213 180
20.0439 -2.92632 -24.8967 -0.368718 0.177618 0.912414 241 228 194
20.1021 -2.94438 -25.044 0.0688941 -0.00552827 0.997609 244 230 197
18.9833 -2.57613 -24.3561 0.145805 -0.0578507 0.98762 226 208 173
19.2977 -2.62587 -25.1085 0.179228 0.121512 0.976275 234 216 179
16.358 -2.37277 -22.2793 0.102663 -0.308286 0.945738 229 213 178
15.9751 -2.37215 -22.2434 0.159314 0.0646366 0.98511 195 182 154
15.7871 -2.34075 -22.4137 -0.02213 -0.0991364 0.994828 74 65 49
14.2218 -2.1432 -21.6496 0.161619 0.435307 0.885656 156 133 90
14.2772 -2.19352 -21.8094 0.152052 0.34818 0.925014 162 138 93
12.2112 -2.03245 -20.2328 0.118283 -0.115787 0.986206 185 166 124
12.1224 -2.03829 -20.4409 -0.205924 -0.225846 0.95215 193 173 131
11.9657 -2.02569 -20.0521 -0.357281 -0.297943 0.885201 190 170 129
12.0789 -1.99906 -20.3403 -0.247482 -0.204326 0.947103 195 175 133
11.9454 -1.88074 -20.5783 0.156139 -0.233039 0.959851 200 180 138
11.7145 -1.88247 -20.5965 0.206492 -0.186479 0.960514 207 185 142
10.0138 -1.77954 -18.7787 0.226731 -0.164109 0.960032 203 183 140
9.66118 -1.69271 -18.6474 0.206353 -0.304294 0.929959 208 188 144
9.3931 -1.69447 -18.6698 0.191764 -0.305115 0.932808 215 194 149
9.22568 -1.65606 -18.5294 0.18734 -0.354877 0.915951 214 193 148
9.24356 -1.58159 -18.8626 0.168045 -0.42248 0.890658 220 199 153
9.23598 -1.5707 -18.8435 0.171456 -0.413437 0.894244 217 196 150
9.22617 -1.65965 -18.7251 0.154728 -0.439296 0.884917 216 195 149
9.24132 -1.66223 -18.8519 0.152344 -0.453833 0.877967 221 201 155
9.23598 -1.5707 -18.8435 0.171456 -0.413437 0.894244 217 196 150
9.24356 -1.58159 -18.8626 0.168045 -0.42248 0.890658 217 196 150
9.24132 -1.66223 -18.8519 0.152344 -0.453833 0.877967 221 201 155
3.60567 -1.15704 -14.9492 0.136642 -0.0526789 0.989219 48 34 18
3.87463 -1.00022 -16.2148 0.36542 -0.260443 0.893665 132 101 39
3.89466 -0.998841 -16.2411 0.36418 -0.26545 0.892698 132 100 40
-0.12615 -0.646097 -13.9624 -0.228221 0.816549 0.530248 103 81 35
4.56582 -3.12363 10.7599 0.0993752 0.575962 -0.811414 106 92 11
4.36312 -3.10793 10.2849 -0.0528038 0.767324 -0.639082 125 110 28
5.15955 -3.15299 10.2861 -0.09961 0.800171 -0.591443 127 113 26
7.4306 -3.66355 11.6732 -0.310304 -0.0865534 -0.946689 131 114 22
5.32598 -3.18757 10.1434 -0.102038 0.797776 -0.594258 134 121 31
5.50283 -3.23272 10.0614 -0.116088 0.809301 -0.575809 141 128 46
5.6795 -3.27397 9.98144 -0.145384 0.8109 -0.566837 155 144 68
8.04513 -3.68575 11.4655 -0.376016 0.174863 -0.909964 132 118 22
8.76824 -3.6954 10.1001 -0.330812 0.122568 -0.935703 156 149 83
8.77604 -3.69684 10.1039 -0.399892 0.129872 -0.907315 155 148 75
8.97433 -3.71813 10.1674 -0.378527 0.356343 -0.854247 150 140 72
9.13535 -3.78768 10.0877 -0.0719298 0.0426022 -0.9965 202 197 150
8.92852 -3.66627 9.98974 -0.517927 0.280823 -0.808016 148 139 63
8.98524 -3.70844 10.0528 -0.481912 0.00247089 -0.876217 157 149 82
9.32084 -3.80069 10.0822 -0.332132 0.232194 -0.914207 196 191 143
9.4284 -3.77496 9.83449 -0.275048 -0.151532 -0.949414 201 197 153
9.65691 -3.79676 9.88702 -0.370512 0.289752 -0.882476 195 192 143
9.72194 -3.73963 9.66539 -0.526629 -0.315025 -0.789571 170 164 105
9.88845 -3.86544 9.40803 -0.244223 -0.377037 -0.893419 241 239 205
9.88965 -3.86099 9.39968 -0.251616 -0.391128 -0.885273 242 240 206
12.6351 -4.01383 6.99662 -0.52655 -0.214184 -0.822721 142 128 39
12.3629 -3.8772 6.7267 -0.585096 0.187332 -0.789031 144 130 45
12.4751 -3.92125 6.54811 -0.468983 0.154121 -0.869657 148 133 42
12.2726 -3.88485 6.50244 -0.486976 0.18942 -0.852628 142 126 36
12.6493 -3.92548 6.47394 -0.738166 0.0206696 -0.674303 145 130 38
12.4174 -3.89737 6.00252 -0.555273 0.549789 -0.624022 149 137 35
12.2919 -3.83487 5.96482 -0.408606 0.645104 -0.645664 135 120 27
12.2727 -3.83535 5.87436 -0.421468 -0.118767 -0.899032 137 124 26
11.7559 -3.85127 5.73356 -0.405898 0.740736 -0.53531 130 117 28
11.7057 -3.82406 5.60265 -0.45424 0.61493 -0.644614 131 118 30
11.7795 -3.81221 5.5885 -0.49271 0.670947 -0.554136 131 117 26
11.7002 -3.82205 5.59908 -0.452587 0.786924 -0.419424 131 118 30
11.6336 -3.65746 3.69814 -0.373836 0.918296 0.130303 133 116 42
13.9196 -2.77427 -9.86389 -0.303478 0.337726 0.890978 202 184 76
13.8322 -2.51491 -12.9694 -0.993431 0.0703314 0.0902729 124 107 76
13.7357 -2.59909 -12.8687 -0.899953 0.262635 -0.348005 150 133 97
20.0646 -2.59482 -24.781 -0.175598 0.19546 0.964863 233 217 184
20.0985 -2.57919 -24.4433 0.138246 0.244193 0.959822 209 191 163
16.2886 -2.05633 -22.3859 0.0654387 0.0623801 0.995905 218 203 170
16.0223 -2.06058 -22.444 0.149722 0.225195 0.962741 151 139 116
15.6763 -2.06005 -22.4363 0.0934602 -0.122572 0.988049 48 37 24
14.1272 -1.82103 -21.5512 0.188328 0.334323 0.92345 144 118 73
14.2259 -1.94312 -21.738 0.144826 0.342205 0.928397 143 122 81
12.102 -1.68701 -20.0912 -0.216544 -0.349258 0.911662 188 168 127
12.0092 -1.68839 -20.2469 -0.308592 -0.362884 0.879253 194 173 132
11.994 -1.8612 -20.1628 -0.270867 -0.289394 0.918086 194 174 133
11.9849 -1.85078 -20.1407 -0.400836 -0.276427 0.873452 192 172 131
11.9229 -1.69001 -20.4177 -0.100542 -0.137168 0.985432 199 178 137
11.3675 -1.7163 -20.3403 0.204198 -0.222671 0.953269 211 191 148
10.1582 -1.58172 -18.9462 0.200212 -0.249465 0.947461 207 187 145
9.67854 -1.57976 -18.7991 0.200684 -0.34675 0.916237 208 188 143
9.70613 -1.48 -18.8033 0.183573 -0.357737 0.915601 212 191 147
9.65022 -1.48043 -18.9307 0.204067 -0.309196 0.928846 220 201 156
9.21431 -1.56705 -18.5089 0.179022 -0.384822 0.905463 212 192 146
9.21811 -1.57757 -18.5228 0.178116 -0.387623 0.904446 213 192 147
8.77181 -1.50644 -18.5425 0.218275 0.318263 0.922532 212 191 146
5.30225 -1.04491 -16.4415 0.302432 0.192784 0.933472 94 85 59
-0.223706 -0.615077 -12.0434 -0.980968 -0.0474364 0.188284 104 93 70
-0.446297 -0.540704 -13.0229 -0.951653 0.200001 0.233146 120 90 30
-0.444306 -0.538058 -13.0309 -0.955346 0.183794 0.231375 120 90 30
-1.23669 -0.50402 -11.269 0.54836 -0.169082 0.818971 134 95 23
-1.70871 -0.54252 -10.6593 0.569912 -0.174522 0.802958 149 109 27
4.75227 -3.08012 10.2083 -0.33202 0.866188 -0.373472 120 107 21
6.98287 -3.4553 11.4603 -0.452859 -0.691391 -0.562937 115 99 15
5.2398 -3.12692 10.3158 -0.513779 0.809098 -0.285292 123 108 20
5.70886 -3.19327 10.3057 -0.34927 0.896664 -0.272037 126 110 21
7.61578 -3.53035 11.0684 -0.00300369 -0.0913184 -0.995817 129 114 20
8.60338 -3.55337 10.2304 -0.428464 0.322945 -0.843875 143 132 29
8.52863 -3.51373 10.0532 -0.370739 0.209261 -0.904855 142 131 29
8.51787 -3.49435 9.90643 -0.490838 0.077507 -0.867797 140 129 29
8.45346 -3.47531 9.87519 -0.406339 0.238922 -0.881933 136 124 27
8.76656 -3.51261 9.87757 -0.333311 0.11866 -0.93532 137 125 28
9.00003 -3.61377 9.8813 -0.362665 0.273052 -0.89102 143 132 42
9.35214 -3.62815 9.9661 -0.388216 0.534504 -0.750729 140 128 33
9.54308 -3.70057 9.72268 -0.493439 -0.0172074 -0.86961 151 144 74
9.82979 -3.65806 9.55015 -0.625275 0.0502638 -0.778784 143 132 48
9.82592 -3.72321 9.41429 -0.776906 0.149428 -0.611628 185 179 127
9.87729 -3.61064 9.32084 -0.777849 0.237253 -0.581946 147 136 44
11.8223 -3.74949 7.81471 -0.374652 0.171205 -0.911221 246 244 213
12.0884 -3.64633 5.04542 -0.820703 0.316773 -0.475501 135 124 25
13.8035 -3.82 4.83157 -0.634396 0.772536 0.0270161 126 116 21
21.209 -3.43215 -10.3034 -0.520919 -0.38235 0.763185 78 63 31
21.324 -3.4993 -10.3182 -0.541469 -0.528994 0.653435 82 66 34
21.3454 -3.71335 -10.2293 -0.22642 -0.324725 0.918307 188 175 116
20.8408 -3.39907 -10.3756 -0.713829 -0.382478 0.58665 125 111 77
20.9049 -3.65326 -10.3887 -0.569606 -0.674731 0.469348 198 192 133
15.9959 -2.74625 -10.4817 -0.0209436 -0.135908 0.9905 199 179 73
13.2331 -2.62247 -9.23285 0.0293797 -0.0146924 0.99946 201 181 83
13.5085 -2.51977 -9.68006 0.0234771 -0.142779 0.989476 187 168 65
13.8206 -2.22289 -12.9519 -0.965332 0.107348 0.237928 156 139 102
13.8699 -2.23628 -12.9981 -0.901693 0.262689 -0.343429 160 142 103
13.8091 -2.3677 -12.9536 -0.974792 0.119159 0.18863 148 130 95
13.6041 -2.29274 -12.7817 -0.810523 0.394692 0.432748 168 151 113
13.6382 -2.44061 -12.8105 -0.792055 0.608479 0.0490143 155 137 101
13.6059 -2.38586 -12.6569 -0.645505 0.763728 0.00656019 156 140 106
13.7233 -2.28927 -13.051 -0.747641 0.16149 0.64417 140 123 88
13.629 -2.19585 -13.1486 -0.949771 0.297198 0.0980221 148 132 100
13.7154 -2.43408 -13.0538 -0.650897 0.169434 0.740017 147 128 94
20.6071 -2.30872 -24.8261 0.170693 0.153451 0.973302 209 189 161
20.9584 -2.37394 -25.2174 0.163362 -0.0772761 0.983535 201 180 148
20.6244 -2.34714 -24.5992 0.151419 0.263757 0.95263 184 167 139
20.0502 -2.26691 -24.6388 0.122494 0.229734 0.965514 221 203 172
19.6248 -2.29393 -24.3479 0.169127 -0.101897 0.980313 231 212 177
19.0032 -2.1156 -24.9055 -0.272308 -0.834951 0.478232 193 175 141
16.3826 -2.04829 -22.179 0.109068 -0.206238 0.972404 236 219 184
15.5566 -1.74255 -22.4334 0.000496358 -0.089123 0.99602 39 31 21
15.723 -1.6535 -22.5067 0.162621 -0.150971 0.97507 48 39 27
15.1483 -1.6713 -22.3101 0.146038 0.34417 0.92748 49 38 22
14.1379 -1.77951 -21.5285 0.177421 0.369474 0.912146 143 118 73
13.4767 -1.56348 -21.1328 -0.142477 0.524063 0.839677 155 133 91
13.756 -1.70461 -21.5493 -0.0505749 0.269074 0.961791 180 158 114
12.047 -1.51225 -19.8752 -0.212065 -0.168087 0.962692 172 153 114
11.9652 -1.51238 -20.0374 -0.284773 -0.394481 0.873664 190 170 129
12.0087 -1.52304 -20.3312 -0.45168 -0.296576 0.841444 194 174 133
11.9554 -1.51269 -20.0178 -0.420798 -0.398645 0.814869 189 170 129
11.2676 -1.47757 -20.2826 0.165192 -0.390214 0.905784 209 188 147
9.67631 -1.38677 -18.5231 0.0943495 -0.226647 0.969396 202 181 140
9.53365 -1.21681 -18.4062 0.170739 -0.364028 0.915605 200 179 138
9.73123 -1.38448 -18.6784 0.191661 -0.369906 0.909085 207 186 144
10.0211 -1.38377 -18.8447 0.197312 -0.235474 0.951641 205 184 143
9.71382 -1.38418 -18.7252 0.118916 -0.338774 0.933323 210 189 146
9.69558 -1.3826 -19.0032 0.192485 -0.331958 0.923446 221 202 157
9.69603 -1.38214 -18.9925 0.197008 -0.343072 0.918417 222 203 158
9.68784 -1.3832 -18.8063 0.206315 -0.341265 0.917046 209 189 145
9.25262 -1.26774 -18.5581 0.158539 -0.459923 0.873691 211 190 145
9.25193 -1.25724 -18.548 0.159886 -0.456755 0.875107 211 190 145
9.22903 -1.25369 -18.7005 0.163242 -0.462794 0.871305 211 190 146
9.23182 -1.2643 -18.7134 0.162834 -0.463801 0.870847 212 191 146
9.25769 -1.25996 -18.9177 0.169061 -0.46313 0.870017 221 202 157
9.25763 -1.24911 -18.907 0.165096 -0.472206 0.86589 215 195 150
9.25763 -1.24911 -18.907 0.165096 -0.472206 0.86589 211 191 147
9.25769 -1.25996 -18.9177 0.169061 -0.46313 0.870017 215 195 150
7.98386 -1.1444 -18.0616 0.347466 0.400859 0.847691 210 189 145
8.04554 -1.05771 -18.1167 0.231461 0.241874 0.942297 211 190 146
6.97932 -1.08731 -17.186 0.409412 -0.00272693 0.912346 210 188 143
6.57872 -1.09885 -16.6253 0.175479 0.551484 0.81552 186 163 123
5.48325 -0.986242 -15.4036 -0.855653 -0.508754 0.0950078 199 176 135
5.41286 -0.927341 -15.5271 -0.846403 -0.517838 0.124285 200 178 135
5.45133 -0.872612 -16.3973 -0.14312 0.0646262 0.987593 176 158 120
5.34335 -0.848945 -16.4262 0.167823 0.118635 0.978653 137 124 95
5.29225 -0.842716 -16.4667 0.301682 0.132355 0.944177 82 73 53
5.29929 -0.941075 -16.4147 0.294341 0.175835 0.939386 102 92 68
5.38669 -0.94204 -16.4108 -0.345005 0.0288529 0.938157 157 143 109
4.4565 -0.8221 -16.8151 -0.807995 0.0309672 0.588375 95 68 21
4.42885 -0.746478 -16.8704 -0.890864 0.0908532 0.445092 102 74 25
4.4157 -0.748551 -16.9348 -0.931728 0.132335 0.338188 109 79 28
4.37922 -0.678562 -16.8166 -0.885756 0.280162 0.370062 121 90 29
4.03398 -0.683954 -16.4589 0.330334 -0.392964 0.858172 128 96 37
3.91044 -0.697327 -16.296 0.369746 -0.277608 0.886691 130 97 35
-0.262966 -0.534806 -12.1659 -0.976826 -0.0933151 0.192624 47 41 28
-1.05445 -0.42544 -11.5251 0.541595 -0.176367 0.821931 135 100 30
5.41629 -3.07063 10.5491 -0.568383 0.771542 -0.28577 94 81 4
7.23825 -3.41262 11.2697 -0.326315 -0.700787 -0.634363 110 95 14
7.42689 -3.38046 11.3129 -0.377622 0.179399 -0.908415 98 84 4
7.53914 -3.40212 11.232 -0.389317 -0.447012 -0.805365 104 90 6
7.66795 -3.35768 10.9698 -0.381768 0.202842 -0.901725 103 90 7
8.62698 -3.45603 9.80582 -0.466745 0.27354 -0.841026 139 127 27
9.3196 -3.46882 10.0027 -0.538445 0.568407 -0.622086 125 113 20
9.52468 -3.47206 9.77903 -0.147974 -0.200124 -0.968532 122 110 17
9.77645 -3.60994 9.66232 -0.70348 0.58759 -0.399817 143 132 31
9.61513 -3.49867 9.54488 -0.374876 0.173262 -0.91074 139 127 24
9.48818 -3.49288 9.4413 -0.751034 0.137335 -0.645823 137 125 24
12.7098 -3.68487 6.14352 -0.558904 0.172913 -0.811004 197 188 137
13.2415 -3.72528 5.84759 -0.425152 0.340825 -0.838502 167 158 95
12.3777 -3.56501 5.15303 -0.412463 0.659583 -0.628351 138 127 42
13.8814 -3.74095 4.97798 -0.644323 0.364207 -0.672459 138 130 32
20.9536 -3.1641 -10.206 -0.895955 -0.144348 0.420034 75 60 34
20.8121 -3.28315 -10.3541 -0.978386 -0.170261 0.117357 128 114 78
13.5924 -2.14344 -12.7487 -0.800403 0.599377 0.0101308 179 162 123
13.7273 -2.13821 -13.0444 -0.782546 0.180235 0.595934 156 139 103
20.8474 -1.8886 -24.677 -0.1761 0.286013 0.941905 182 165 134
20.774 -1.89051 -25.0087 0.132496 -0.278809 0.951163 210 192 161
20.6908 -1.88138 -24.5846 -0.285165 -0.0332619 0.957901 170 155 131
20.8437 -2.02606 -25.1514 0.136868 -0.262717 0.955116 208 185 152
19.9217 -1.81043 -24.3691 0.15595 0.21309 0.964506 212 194 162
20.0856 -1.87733 -24.466 0.164679 -0.0772865 0.983315 209 189 156
19.4736 -1.87801 -24.2623 0.170181 -0.128554 0.976991 227 209 174
16.389 -1.73287 -22.3402 0.196561 -0.15206 0.968629 200 184 153
14.153 -1.45529 -21.4281 0.199874 0.366225 0.908807 141 116 69
14.1789 -1.32648 -21.6616 0.172946 0.299098 0.938419 160 135 87
13.5628 -1.32848 -21.3558 0.0798909 0.235857 0.968498 185 161 114
11.9305 -1.18502 -19.9165 -0.347855 -0.364077 0.86397 180 160 122
11.9721 -1.33877 -19.8963 0.0937891 -0.495797 0.863359 180 161 121
11.789 -1.18355 -19.5188 -0.685128 -0.186876 0.704044 185 165 122
11.9503 -1.34651 -20.0975 -0.303254 -0.367614 0.879146 193 172 132
11.9534 -1.18157 -20.1819 -0.545604 -0.241265 0.802563 193 172 132
11.8694 -1.18308 -20.1025 -0.320408 -0.229627 0.919027 191 170 131
11.8907 -1.17976 -20.3583 -0.26074 -0.106328 0.959536 200 179 138
10.1137 -1.18108 -19.0609 0.225624 -0.254239 0.940455 204 182 141
9.14949 -1.09671 -18.4418 0.147775 -0.495307 0.856057 207 186 142
9.20668 -1.08837 -18.6728 0.153723 -0.495187 0.855078 208 187 143
9.10942 -0.929537 -18.3808 0.136541 -0.529129 0.837484 205 182 140
9.21705 -1.02496 -18.7067 0.16011 -0.486924 0.858644 207 185 142
9.14542 -1.08626 -18.429 0.146433 -0.498312 0.854543 207 186 142
9.21808 -1.08802 -18.684 0.153451 -0.495775 0.854786 208 187 143
7.9306 -0.90088 -18.1167 0.235886 0.230992 0.943928 207 185 142
7.57166 -0.925793 -17.8293 0.330603 0.16829 0.928644 197 174 133
7.34352 -0.927369 -17.7377 0.298533 0.0706605 0.95178 200 177 134
7.61838 -0.925475 -18.015 0.289655 0.328938 0.898833 198 175 134
6.76247 -0.888942 -16.7482 0.237781 0.431887 0.870019 210 187 144
7.50751 -0.951289 -17.8267 0.395994 0.0643891 0.915993 212 191 147
6.50036 -0.786017 -16.858 0.123571 -0.12536 0.984386 202 180 137
5.48391 -0.701683 -16.4404 0.0267193 0.0687636 0.997275 182 164 125
5.50302 -0.791336 -16.3988 -0.212541 0.0779671 0.974037 186 166 126
5.38936 -0.654934 -16.4958 0.220034 0.0952419 0.970832 153 138 107
5.33434 -0.752531 -16.472 0.123854 0.104985 0.986731 118 107 81
5.42969 -0.753682 -16.48 0.159906 0.0519175 0.985766 167 150 115
4.45271 -0.602386 -16.8828 -0.873297 0.0873673 0.479291 107 78 22
-0.211668 -0.394617 -11.9104 -0.973543 -0.132282 0.18632 171 154 117
-0.239854 -0.469536 -12.0141 -0.981256 -0.0401661 0.188478 115 104 78
-0.23968 -0.469519 -12.0146 -0.980532 -0.0422513 0.191759 115 104 78
-0.205054 -0.395358 -12.3387 -0.941863 -0.00733307 0.335917 45 41 30
-1.43484 -0.365582 -11.2943 0.573891 -0.179566 0.799002 142 100 27
-1.58257 -0.351875 -11.013 0.554406 -0.233235 0.798896 148 108 26
-1.62545 -0.343199 -11.1167 0.586516 -0.198169 0.78532 151 111 27
4.92257 -2.97257 11.1371 -0.143091 0.488366 -0.860827 121 108 25
4.61984 -2.96077 10.7621 -0.0821172 0.588027 -0.804662 96 84 11
5.13848 -3.00432 10.8127 -0.295455 0.685762 -0.665159 104 90 14
5.25468 -3.00484 10.5199 -0.374684 0.532681 -0.758856 99 88 12
6.74799 -3.25578 11.2857 -0.300892 -0.697147 -0.650731 104 90 12
6.94343 -3.19357 11.1143 -0.272458 -0.668384 -0.69212 120 108 24
7.70403 -3.35049 10.9403 -0.374551 0.171615 -0.911186 103 90 7
8.47618 -3.33419 9.81799 -0.491213 0.136496 -0.860278 121 109 18
8.77866 -3.36115 9.83226 -0.353739 0.174365 -0.918948 121 109 18
8.6175 -3.30648 9.75296 -0.450497 0.420522 -0.787536 116 103 15
14.4967 -3.47901 4.37359 -0.741001 0.595922 -0.309507 121 114 12
21.3381 -3.03901 -9.87884 -0.756822 -0.273911 0.593458 69 54 29
21.1071 -2.81362 -10.066 -0.672244 -0.237317 0.701263 65 47 23
21.1016 -2.81427 -10.0625 -0.639815 -0.298798 0.708066 65 47 23
20.9584 -2.93374 -10.2187 -0.89504 -0.0973247 0.435238 64 47 23
20.7562 -2.81326 -10.3526 -0.975876 -0.140575 0.167045 108 90 57
20.9228 -2.95716 -10.2192 -0.642043 -0.123068 0.756726 65 48 24
17.3821 -2.39599 -11.4672 0.0143483 -0.0833183 0.99642 192 173 71
11.6702 -1.65444 -13.2648 -0.156502 0.300591 0.940825 182 166 131
11.7302 -1.47856 -13.3977 -0.139932 0.166187 0.976115 192 176 143
20.4616 -1.45966 -24.4325 0.159199 0.170703 0.972377 174 159 131
20.2933 -1.56982 -24.4392 0.171688 0.0656835 0.982959 194 178 150
19.1291 -1.58795 -24.2587 -0.0700145 -0.231422 0.970331 233 216 180
19.1338 -1.58939 -24.2722 -0.0684206 -0.23735 0.969012 233 216 180
16.0427 -1.29603 -22.5918 0.162824 -0.120329 0.97929 130 118 99
15.5902 -1.29634 -22.4872 0.0886383 -0.141458 0.985968 44 34 22
13.5827 -1.07273 -21.3137 0.206021 0.135065 0.969182 167 141 90
11.7979 -1.13839 -18.832 0.254459 0.00195773 0.967082 171 146 98
12.0535 -1.02574 -19.8731 -0.467135 -0.29027 0.835181 176 155 115
11.9729 -1.01332 -20.2694 -0.566075 -0.219388 0.794624 190 170 130
11.9853 -0.842107 -20.3428 -0.575305 -0.231604 0.784465 185 165 126
11.9431 -0.888111 -20.0692 -0.540221 -0.321947 0.777503 184 164 125
11.9539 -1.0236 -20.0231 -0.427199 -0.337062 0.838982 185 165 127
11.763 -0.826852 -20.3347 -0.969 0.240148 -0.0580338 193 172 133
10.1208 -0.976399 -19.0976 0.216552 -0.313882 0.924437 203 181 141
10.1993 -0.965886 -19.3585 0.222065 -0.316058 0.922385 216 195 152
9.41052 -0.836523 -18.6143 0.0802043 -0.644411 0.760461 198 175 134
8.99354 -0.752017 -18.1534 0.142477 -0.521584 0.84122 200 177 136
9.1722 -0.838946 -18.5441 0.160743 -0.489637 0.856982 210 188 144
8.75558 -0.718712 -17.9941 0.00656968 -0.730562 0.682815 201 179 136
8.8836 -0.751949 -18.5121 0.0861862 -0.643796 0.760328 200 178 136
8.8505 -0.681985 -18.4908 0.157264 -0.527893 0.834624 199 177 135
8.11764 -0.738324 -18.2891 0.247539 0.208966 0.946075 199 178 135
7.39113 -0.742359 -17.6885 0.295781 0.128597 0.94656 195 172 132
6.41421 -0.569513 -16.9443 0.1394 0.108485 0.984276 184 161 123
6.37476 -0.573113 -16.7413 0.271451 0.325696 0.905669 184 163 124
6.36888 -0.579355 -16.7886 -0.00469714 0.000342876 0.999989 199 176 135
5.48811 -0.533707 -16.3302 -0.640321 0.0739822 0.764536 190 170 128
5.48604 -0.526779 -16.4496 -0.0938252 0.0597398 0.993795 181 162 123
5.4618 -0.608887 -16.4774 0.0878386 0.0631141 0.994133 175 157 120
5.39966 -0.580014 -16.4483 0.0554484 0.0807456 0.995191 168 151 116
5.55323 -0.609438 -16.4614 -0.0325679 0.0487123 0.998282 187 167 127
5.33188 -0.46601 -16.5408 0.0823365 -0.0781538 0.993536 115 103 78
5.32737 -0.559645 -16.4887 0.197548 0.107431 0.974389 125 113 87
5.39191 -0.470499 -16.5013 0.303438 0.0882467 0.948756 159 142 109
5.41957 -0.561285 -16.4916 0.0978158 0.0680802 0.992873 166 149 114
4.37891 -0.437383 -16.7952 -0.919637 0.164358 0.356727 122 89 27
4.01425 -0.395666 -16.4179 -0.0321014 -0.468471 0.882895 126 92 31
-0.231972 -0.321536 -12.0542 -0.980001 0.0490074 0.192862 115 103 78
-1.08891 -0.2708 -11.3871 0.540958 -0.157469 0.826176 127 95 33
-1.07667 -0.281279 -11.3996 0.538549 -0.138813 0.831081 126 95 34
-1.47244 -0.250865 -11.0964 0.569357 -0.170798 0.804152 140 100 22
5.51135 -2.90053 10.1716 -0.2947 0.41058 -0.862888 128 115 29
8.98416 -3.26451 10.0019 -0.679028 0.0810315 -0.729627 113 101 13
12.5854 -3.30849 6.66408 -0.696185 0.424937 -0.57858 141 130 28
14.6955 -3.39797 4.75561 -0.492189 0.856194 -0.157101 116 110 9
14.8979 -3.40359 4.64624 -0.451458 0.868415 -0.205037 112 106 8
14.0556 -3.31689 4.58388 -0.401761 0.915363 0.0264415 111 104 9
22.2837 -3.47917 -1.78266 -0.589208 0.431048 -0.683397 169 145 89
21.2054 -2.7366 -9.92903 -0.724029 0.0734938 0.685843 76 57 29
21.2578 -2.56146 -9.71155 -0.507975 -0.494257 0.705458 106 80 43
21.1505 -2.59397 -10.1098 -0.766872 0.182872 0.615196 81 59 27
21.1247 -2.58984 -10.0864 -0.705945 0.145111 0.693242 82 59 28
20.8608 -2.46424 -10.2052 -0.939911 -0.11871 0.320116 89 66 28
20.7779 -2.58549 -10.3835 -0.955701 -0.208777 0.207478 106 84 52
20.9101 -2.69883 -10.2134 -0.904647 -0.137657 0.403318 71 52 26
20.7841 -2.54759 -10.3535 -0.979519 -0.20023 0.0212296 95 74 42
20.4161 -2.41553 -10.4357 -0.106028 0.226165 0.968301 211 188 131
11.588 -1.30791 -13.2844 -0.151208 0.197004 0.968672 193 177 143
20.7348 -1.21686 -24.7392 0.17126 -0.014199 0.985124 175 160 132
19.4135 -1.11573 -24.2227 0.181956 -0.18854 0.965062 219 201 168
19.4064 -1.11443 -24.2063 0.181808 -0.188989 0.965002 219 201 168
15.9457 -0.981599 -22.6084 0.162887 -0.174619 0.971069 106 96 78
15.5427 -0.982503 -22.5412 -0.00325125 -0.192979 0.981197 41 30 20
14.0435 -0.797736 -21.8523 0.230448 -0.171996 0.957764 182 160 114
14.1004 -0.743892 -21.9933 0.229789 -0.198061 0.952874 184 162 117
15.0659 -0.81306 -23.1318 -0.465368 0.281814 0.839055 169 148 102
12.1006 -0.749338 -19.8168 -0.968819 -0.232768 0.0849004 119 102 65
12.1203 -0.739776 -19.8276 -0.970039 -0.228139 0.0835311 128 110 71
11.7938 -0.632188 -19.7695 -0.797003 -0.198622 0.570382 178 158 119
11.9281 -0.740685 -19.89 -0.4015 -0.363058 0.840825 170 151 113
11.9304 -0.749448 -19.9033 -0.430804 -0.39395 0.811918 168 149 111
11.7898 -0.807028 -19.7194 -0.506204 -0.143181 0.850445 188 167 126
11.8462 -0.720271 -20.0314 -0.86521 -0.0221573 0.500921 191 170 131
11.9137 -0.728027 -20.1294 -0.567214 -0.420837 0.70793 190 169 130
11.9209 -0.624253 -20.3228 -0.886051 -0.0486414 0.461029 196 176 134
9.15779 -0.56203 -18.2041 0.166842 -0.467637 0.868032 198 175 135
8.92617 -0.501697 -18.1654 0.189831 -0.425321 0.88491 197 175 134
8.66989 -0.630702 -18.0525 0.012257 -0.730402 0.682908 200 178 136
8.00546 -0.50035 -17.87 -0.538385 -0.600786 0.59093 206 184 139
7.76659 -0.470903 -17.7068 0.145135 -0.28885 0.946309 200 178 135
6.97602 -0.512476 -17.5685 0.230405 0.28185 0.931383 183 159 124
7.04369 -0.412472 -17.6905 0.256022 0.194464 0.946909 183 159 124
6.46167 -0.434405 -17.0851 0.234181 0.269206 0.934178 177 156 119
6.43686 -0.442255 -17.0358 0.271578 0.118509 0.955092 177 156 119
6.25797 -0.366904 -16.9609 0.293303 0.1707 0.940657 202 180 138
6.34688 -0.467243 -17.0401 0.31383 -0.029685 0.949015 195 173 133
5.82583 -0.418525 -16.3809 0.290643 0.0899177 0.952597 170 151 113
5.69309 -0.350326 -16.2345 0.203184 0.409654 0.889326 195 172 130
5.45239 -0.441693 -16.4725 -0.107748 0.0100096 0.994128 177 158 121
5.45444 -0.349253 -16.4469 -0.300639 -0.0331389 0.953162 181 162 124
5.35358 -0.381238 -16.4706 -0.528944 0.136648 0.837583 167 151 118
-0.238596 -0.254916 -11.8881 -0.966452 -0.164879 0.19694 169 153 115
-0.34951 -0.24539 -11.9137 0.491178 -0.231121 0.839838 62 55 40
-0.992365 -0.120035 -11.7484 0.550056 -0.223375 0.8047 130 96 29
5.05337 -2.84169 10.8742 0.0275167 0.682469 -0.730397 137 123 30
5.44509 -2.80153 10.6248 -0.326551 0.680933 -0.655511 159 145 43
6.82084 -3.06542 11.1381 -0.324931 -0.0190269 -0.945546 144 131 35
7.05486 -3.00955 10.9901 -0.314542 -0.167124 -0.934416 152 139 39
7.38643 -3.0358 11.0358 -0.270967 -0.185143 -0.944616 155 141 41
14.2387 -3.23896 5.51916 -0.51572 0.67147 -0.532128 113 106 12
14.987 -3.02938 3.74887 -0.606375 0.0419118 0.794074 153 145 32
20.1871 -3.06937 -0.794689 -0.745836 0.55342 -0.370748 149 138 91
20.5567 -3.23636 -1.15142 -0.626344 0.224078 -0.746648 164 150 106
19.9569 -3.17854 -1.00893 -0.599163 0.307382 -0.73927 171 158 113
22.7995 -2.70541 -6.60438 -0.807439 -0.172279 0.564236 228 210 94
22.5654 -2.83892 -6.78853 -0.776253 -0.0144882 -0.630255 242 232 140
22.5895 -2.73851 -7.73977 -0.977992 -0.126663 -0.165795 64 47 26
21.3646 -2.3359 -9.76758 -0.753067 -0.237628 0.613534 128 99 57
21.4185 -2.25482 -9.78692 -0.267951 0.494781 0.826676 133 104 58
21.115 -2.35507 -10.0959 -0.829068 -0.00267512 0.559142 135 107 57
21.1854 -2.46865 -9.9097 -0.819555 -0.146903 0.553849 104 78 38
20.9492 -2.23674 -10.244 -0.806423 -0.0202918 0.590991 132 103 48
20.7497 -2.31545 -10.3703 -0.938189 -0.295538 0.180165 111 86 41
20.9792 -2.19075 -10.2532 -0.470896 0.110238 0.875274 137 108 52
20.3465 -2.27453 -10.3817 -0.147784 -0.168198 0.974612 203 178 119
20.3797 -2.2036 -10.4577 -0.161379 -0.22297 0.961375 210 184 120
22.3383 -0.713809 -26.131 0.183634 -0.237961 0.953757 160 144 104
20.1974 -0.931736 -24.427 0.169059 0.0865388 0.981799 187 171 142
19.3037 -0.663835 -24.2415 0.186797 -0.21575 0.958415 218 200 167
18.8982 -0.567848 -24.3982 0.145201 0.35541 0.923364 211 191 156
17.6118 -0.604814 -23.5067 0.162871 0.282742 0.945267 207 187 149
13.9655 -0.467771 -21.8432 0.22412 -0.249813 0.942 181 158 112
15.1863 -0.394542 -23.3061 -0.4771 0.328621 0.815097 161 135 86
11.7913 -0.621453 -19.7525 -0.795306 -0.202617 0.571344 181 162 121
11.784 -0.43764 -19.7789 -0.733704 -0.465542 0.494924 177 157 118
11.8223 -0.538216 -20.0127 -0.876472 -0.166403 0.451782 184 164 126
11.8148 -0.353159 -20.0394 -0.831571 -0.241999 0.499926 186 165 126
11.3799 -0.309545 -20.0252 0.186767 -0.459577 0.868279 191 170 132
9.62656 -0.3727 -18.4781 0.180062 -0.464272 0.867196 192 170 130
7.92622 -0.310073 -17.4924 0.0781275 -0.685174 0.724177 195 172 129
7.71995 -0.396914 -17.475 -0.562389 -0.156284 0.81197 199 176 133
7.90801 -0.42732 -17.5598 0.238688 -0.246348 0.93933 200 178 134
6.8593 -0.328344 -17.3731 0.181881 0.383814 0.905321 197 174 132
6.76908 -0.321089 -17.2537 0.21975 0.286227 0.932622 196 174 132
6.66767 -0.187358 -17.4629 0.241783 0.557794 0.793982 184 162 125
5.85709 -0.327594 -16.4295 0.36916 0.41647 0.830827 162 142 107
5.59182 -0.205889 -16.4448 -0.435192 0.0601987 0.898323 198 176 133
5.55354 -0.297815 -16.328 -0.541551 0.170399 0.823218 192 170 128
5.4301 -0.150447 -16.1895 -0.915987 0.0673391 0.395516 186 163 123
4.35149 -0.130697 -16.7713 -0.930945 0.0181844 0.364708 124 89 26
2.10505 -0.0765825 -14.0658 -0.21632 0.610411 0.761974 118 78 22
-0.373685 -0.162259 -11.7059 -0.975619 0.111168 0.189235 157 141 106
-0.202557 -0.107514 -12.3395 -0.938951 -0.0104977 0.34389 54 52 41
-0.932671 -0.0438696 -11.7533 0.536811 -0.218044 0.81504 128 95 31
-1.03016 -0.0689457 -11.7658 0.556984 -0.190997 0.808263 135 99 28
-1.73467 -0.094477 -10.7032 0.154902 -0.224349 0.962119 139 100 25
6.3684 -2.84811 10.8743 -0.327575 0.122228 -0.936886 167 151 47
6.57764 -2.85426 10.8502 -0.323674 0.106679 -0.940136 165 151 45
7.24416 -2.9289 11.1246 -0.327266 0.121104 -0.93714 172 156 51
15.5921 -3.01208 4.85855 -0.733639 0.563707 0.379484 123 114 23
15.332 -2.826 3.9193 -0.87122 -0.00681409 0.490845 165 153 41
15.217 -2.93739 3.75504 -0.862324 -0.137966 0.487198 154 144 32
14.9813 -2.93164 3.47744 -0.69755 0.276497 0.66104 158 149 36
21.3907 -2.97612 -0.652105 -0.550894 0.67194 -0.494988 111 93 48
20.2231 -2.86207 -0.807952 -0.663115 0.67689 -0.319528 111 92 47
20.4816 -2.93287 -1.16611 -0.616295 0.200304 -0.761616 113 97 49
20.7043 -2.85735 -0.971956 -0.598696 0.636441 -0.48632 112 93 48
22.0758 -2.83277 -1.60167 -0.612565 0.227996 -0.756824 135 115 63
24.9682 -2.89758 -3.63155 -0.788319 0.0693656 -0.611344 231 207 118
22.0188 -2.49192 -6.09692 -0.925028 -0.328554 -0.190726 230 209 91
22.5503 -2.39567 -6.55141 -0.937101 -0.228459 0.263909 228 211 96
21.2961 -2.09259 -9.77109 -0.688497 -0.40437 0.602044 114 84 37
16.3883 -1.28965 -12.2981 0.0341363 -0.321524 0.946286 170 156 57
15.3523 -1.2321 -11.8483 -0.307547 -0.462264 0.831701 178 160 77
16.4195 -1.29294 -12.5463 0.0681403 -0.171145 0.982887 176 159 68
22.5222 -0.717512 -25.8344 0.236383 -0.264847 0.934869 109 93 50
20.2514 -0.613873 -24.6065 -0.239619 -0.263841 0.934329 190 172 141
18.9079 -0.398867 -24.5125 -0.176641 0.759157 0.626482 217 196 159
16.2266 -0.422825 -22.3043 -0.824763 0.198712 0.529415 192 174 140
15.2811 -0.0611143 -23.1485 -0.923864 0.381023 0.0360134 161 138 93
15.2882 -0.18666 -23.2596 -0.798126 0.296914 0.524249 173 150 106
15.3071 -0.0198702 -23.5317 -0.787103 0.304542 0.536398 160 135 83
11.7739 -0.24792 -19.8122 -0.808027 -0.243336 0.536545 179 158 120
11.7704 -0.142104 -19.6265 -0.725298 -0.261467 0.63685 178 158 116
11.8293 -0.171665 -20.1041 -0.856367 -0.102179 0.506158 187 166 128
11.4242 -0.112011 -19.9297 -0.0495738 -0.581598 0.811965 186 165 128
9.58015 -0.266592 -18.3905 0.169061 -0.497082 0.851075 190 168 129
9.4879 -0.0963313 -18.2726 0.0664307 -0.690335 0.720434 184 162 126
8.83312 -0.0843725 -17.7276 0.0832862 -0.661045 0.745709 184 162 124
8.16918 -0.184888 -17.2623 0.0598636 -0.698697 0.712909 189 166 128
8.66263 -0.164278 -17.7767 0.0564046 -0.703986 0.707971 199 176 136
8.65786 -0.165425 -17.7703 0.0770182 -0.687302 0.722278 193 170 131
8.06128 -0.244556 -17.3942 0.0555428 -0.70927 0.702746 191 169 128
8.01215 -0.0513119 -17.5192 0.101617 -0.66651 0.738538 189 167 127
2.01749 -0.0215868 -14.0875 0.217852 0.572949 0.790107 122 76 18
-0.212151 0.0257106 -12.3272 -0.858642 -0.0129688 0.512411 57 53 41
-0.250327 0.0876785 -12.4398 -0.956337 -0.0501195 0.287937 39 34 26
-1.01712 0.0811762 -11.6968 0.53202 -0.147764 0.833739 137 100 28
-1.355 -0.00106554 -11.219 0.0457258 -0.480618 0.875737 125 88 21
-1.68156 0.0212475 -10.9685 0.591162 -0.201421 0.780997 147 107 25
-1.74039 -0.00813475 -10.7472 -0.00343847 -0.471335 0.881948 140 101 25
7.14596 -2.88616 11.1115 -0.324156 -0.0216342 -0.945756 175 159 54
7.13464 -2.78519 10.9592 -0.325964 0.0835175 -0.941686 183 165 54
7.06209 -2.8235 10.853 -0.421972 0.131902 -0.896963 176 160 52
7.35094 -2.84489 10.8222 -0.332398 -0.139119 -0.932822 176 160 51
15.4162 -2.71488 4.73628 -0.691179 0.461364 0.556251 162 151 39
15.6992 -2.74049 4.31764 -0.814197 0.175408 0.553457 167 154 41
15.4215 -2.74122 4.10323 -0.818762 0.262672 0.510522 168 156 43
22.0987 -2.67027 -1.42181 -0.730552 0.160029 -0.663841 132 114 63
21.8997 -2.20962 -6.04465 -0.74385 -0.254135 -0.618145 229 209 92
22.3722 -2.09926 -6.46566 -0.959362 -0.265557 0.0954154 224 204 91
15.3674 -1.0293 -11.9275 -0.187757 -0.264732 0.945867 177 158 76
15.9576 -1.08235 -12.3195 -0.277725 -0.0693431 0.958155 188 167 90
15.964 -1.0857 -12.1513 -0.280015 0.201348 0.938643 171 155 62
15.904 -1.08116 -12.2784 -0.260374 -0.146637 0.954308 186 166 86
15.2305 -1.03917 -11.9211 -0.339795 -0.187738 0.921571 184 164 76
15.0777 -1.04139 -11.8821 -0.342421 -0.22806 0.911447 183 162 78
22.3579 -0.22554 -25.7639 0.243465 -0.255799 0.93557 110 95 53
21.0225 -0.0576521 -25.0594 0.156829 0.14239 0.977307 153 140 108
21.0814 -0.0143053 -25.461 -0.173583 0.161845 0.971429 168 150 114
19.3097 -0.251812 -24.2074 0.20591 -0.19038 0.959873 197 176 141
17.3265 -0.22299 -22.691 0.140407 -0.48347 0.864027 198 178 143
15.3214 0.218731 -23.4533 -0.831185 0.231834 0.505356 163 137 89
11.7905 -0.0717211 -19.8783 -0.837841 -0.257507 0.481366 176 156 117
11.7722 0.0312506 -19.6914 0.0801817 -0.435862 0.896435 174 154 113
11.7667 0.0331668 -19.6717 -0.780254 -0.281519 0.558526 170 150 110
11.3415 0.000934912 -19.9929 0.142117 -0.573008 0.807133 190 169 131
11.2294 -0.00329652 -20.1491 0.0657016 -0.694883 0.716115 186 165 127
8.76458 0.0101054 -17.7884 0.0243944 -0.745205 0.666389 189 168 129
8.77673 0.0105541 -17.7955 0.0754637 -0.69605 0.714016 189 167 129
8.54709 -0.0541917 -17.4881 0.0492085 -0.723544 0.688522 187 164 127
8.54243 -0.0554276 -17.482 0.077011 -0.688814 0.720837 184 162 125
5.72962 0.029919 -16.0512 0.288305 0.105389 0.951721 170 149 113
5.28577 0.188225 -16.0761 -0.0655786 0.0782765 0.994773 183 161 121
5.29923 0.191303 -16.0777 -0.027654 0.0968389 0.994916 183 162 121
4.31627 0.33877 -17.6375 -0.549961 0.729343 0.406942 123 85 31
4.32328 0.321874 -17.8389 -0.138419 0.827936 0.543472 124 85 28
-0.207748 0.13249 -12.0557 0.319597 0.0698793 0.944973 151 134 103
-0.217361 0.14406 -12.322 -0.94228 -0.0532233 0.330568 58 55 43
-0.922469 0.102568 -11.6828 0.539311 -0.120284 0.833472 103 78 32
-0.98197 0.170213 -11.6244 0.546208 -0.16391 0.821456 118 90 37
6.26596 -2.7232 11.0317 -0.348627 0.194477 -0.916863 182 164 56
6.2025 -2.70363 10.9949 -0.335718 0.464922 -0.819232 185 168 58
6.24589 -2.69856 10.8596 -0.327515 0.12204 -0.936931 184 167 56
6.40458 -2.69834 10.8137 -0.268452 -0.0807931 -0.959899 186 168 57
6.50626 -2.69089 10.7301 -0.296258 0.00620232 -0.955088 185 165 56
6.81087 -2.7112 10.7649 -0.275758 -0.0579441 -0.959479 188 169 58
7.26246 -2.7168 10.9835 -0.221059 0.0625371 -0.973253 190 171 59
7.33996 -2.70842 10.8925 -0.238203 -0.001243 -0.971215 191 172 60
15.9174 -2.76971 5.11218 -0.741004 0.46063 0.488603 149 138 32
15.056 -2.43805 4.40857 -0.654492 0.19732 0.729866 189 172 55
21.8314 -1.93548 -6.04711 -0.988083 -0.153922 0.000299841 221 200 86
21.3111 -1.4052 -9.49483 -0.834902 -0.340134 -0.432722 95 73 37
17.2695 -0.692127 -12.9301 -0.318388 -0.468842 0.823903 165 152 53
17.2629 -0.691944 -12.928 -0.315646 -0.473305 0.822405 165 152 53
15.8116 -0.898538 -12.1757 -0.286034 0.000500083 0.958219 172 157 66
15.9853 -0.899598 -12.0887 -0.349085 0.183641 0.918921 171 154 62
16.0534 -0.696025 -12.2054 -0.277126 0.172245 0.945269 164 149 55
15.647 -0.907203 -11.9945 0.0399566 -0.22265 0.974079 179 161 74
15.2209 -0.656073 -12.1269 -0.321928 -0.470481 0.82159 175 152 89
8.19622 -0.873449 -7.61662 -0.0591396 -0.00747427 0.998222 154 136 108
22.6513 0.275766 -26.383 0.172781 -0.106047 0.979235 120 107 77
20.8354 0.215646 -25.0787 0.193862 -0.189991 0.962456 165 150 113
15.3845 0.308239 -23.1741 -0.959248 0.204248 0.195257 140 116 72
15.3677 0.466347 -23.4306 -0.899976 0.224394 0.373752 165 143 99
11.7867 0.139515 -19.5129 0.237175 -0.502683 0.831299 166 145 100
11.7106 0.200105 -19.6759 0.195415 -0.626947 0.754156 179 160 118
11.6044 0.266513 -19.4725 0.220429 -0.578757 0.785144 173 154 111
10.972 0.288807 -18.9368 0.259419 -0.512005 0.818873 176 158 118
9.15535 0.405311 -18.9074 -0.866916 0.485099 0.114609 188 166 127
5.26774 0.281836 -16.1114 -0.0026122 0.120637 0.992693 182 160 120
5.26161 0.279355 -16.1176 -0.00577775 0.114 0.993464 182 160 120
5.26289 0.279344 -16.1264 0.0178312 0.113321 0.993399 182 160 120
5.29279 0.269649 -16.0433 -0.145504 0.0624188 0.987387 182 161 120
5.26985 0.395529 -16.2781 0.316625 0.120513 0.940864 165 147 111
5.25399 0.37613 -16.1579 0.0494389 0.0527169 0.997385 180 159 119
5.26958 0.393019 -16.293 0.316036 0.126295 0.940304 157 140 106
5.26922 0.295891 -16.229 0.27404 0.101469 0.95635 178 158 119
