ply
format ascii 1.0
element vertex 739
property float x
property float y
property float z
property float nx
property float ny
property float nz
property uchar diffuse_red
property uchar diffuse_green
property uchar diffuse_blue
end_header
-0.797662 -0.443584 12.4058 -0.655522 0.40153 -0.639581 104 86 55
-0.718155 -0.457716 12.4481 -0.886258 -0.0032433 -0.46318 81 65 39
-0.745242 -0.527755 12.4531 -0.818751 -0.206562 -0.535705 89 73 43
-0.67885 -0.3947 12.3342 -0.945396 -0.145838 -0.291476 63 50 30
-0.512097 -0.368816 12.1667 -0.45725 -0.217708 -0.862279 135 122 94
1.1696 0.416822 10.7965 -0.639751 -0.577685 -0.50695 116 96 68
1.21701 0.402376 10.6646 -0.118523 -0.571046 -0.812317 68 50 24
2.00727 0.588831 10.9015 -0.0381817 0.461493 -0.886322 143 116 51
1.83756 0.588189 10.8281 0.00352651 0.33371 -0.942669 104 74 31
5.42903 1.39665 11.7923 -0.0251398 -0.643504 -0.76503 225 216 83
5.97135 1.6168 11.509 -0.358434 -0.397169 -0.844856 198 186 82
6.06916 1.59963 11.3369 -0.267753 -0.578883 -0.770196 206 194 89
6.36358 1.68021 11.3427 -0.24324 -0.57199 -0.783366 157 143 56
6.32107 1.70952 11.2299 -0.121979 -0.7916 -0.598741 107 90 22
6.65637 1.7709 11.1007 -0.733109 0.249773 -0.632586 83 66 13
6.95604 1.86451 11.0821 -0.688259 0.425615 -0.587496 75 55 17
6.91923 2.0462 10.6528 -0.955597 -0.247264 -0.160297 67 47 19
6.82189 2.02741 10.2921 -0.874764 -0.484548 0.00151926 98 77 40
6.62243 2.00454 9.89208 -0.814972 -0.560286 -0.147987 121 95 45
6.43722 2.03029 9.66078 -0.903623 -0.290921 0.314374 117 93 42
6.44457 2.06434 9.45922 -0.812254 -0.462519 -0.355416 122 99 43
6.29888 2.05017 9.33512 -0.885176 -0.335723 0.322108 118 94 41
6.34443 2.1299 9.30331 -0.78312 -0.445468 -0.433914 75 55 18
6.31889 2.0747 9.1378 -0.690318 -0.427086 -0.584003 133 107 47
6.13884 2.0706 8.95652 -0.881461 -0.331134 0.336714 121 96 40
6.09176 2.1398 8.81514 -0.925641 -0.369989 0.0793619 74 49 15
6.72121 2.41935 8.3497 -0.565581 0.276177 -0.777074 17 13 5
6.68246 2.38442 8.09997 -0.618108 0.610186 -0.495596 13 13 6
7.36741 2.65747 7.90707 -0.453788 -0.655056 -0.604134 55 50 36
7.72819 2.72041 7.88872 -0.302877 -0.528683 -0.792944 50 45 32
7.62665 2.75319 7.79217 -0.286775 -0.209723 -0.93476 33 26 13
7.94431 2.8836 7.56864 -0.488863 0.416041 -0.766762 40 31 14
8.06677 2.9238 7.46251 -0.767023 0.143262 -0.625421 48 37 20
8.16737 2.9843 7.35299 -0.946256 -0.311986 0.0852288 82 58 26
-7.54244 -1.96912 10.6591 0.593893 0.0423864 -0.803426 199 154 85
-7.3743 -1.96146 10.9081 0.734227 0.086791 -0.673334 199 156 86
-6.44576 -2.00901 12.4473 0.356369 -0.086214 -0.930359 184 141 67
-5.9329 -1.95132 13.0037 0.586573 0.621469 -0.519335 165 127 49
-5.92334 -1.97962 13.1174 0.358282 0.865639 -0.349719 169 129 55
-5.62652 -1.9776 13.5122 0.0901028 -0.254066 -0.962981 158 120 45
-5.66091 -1.89485 13.448 0.104454 -0.177348 -0.978589 163 124 49
-5.40558 -1.96845 13.9607 -0.159379 -0.135241 -0.97791 89 66 30
-5.32746 -1.97686 13.9674 0.041445 -0.173895 -0.983892 26 16 8
-0.863471 -0.467743 12.5805 -0.671229 0.502987 -0.544477 176 154 111
-1.00867 -0.478963 12.3841 -0.564406 -0.0308419 -0.824921 181 158 112
-0.920375 -0.381521 12.4937 -0.571838 -0.0854473 -0.815905 173 152 106
-0.826915 -0.422199 12.5049 -0.585803 -0.0966339 -0.804672 167 145 108
-0.810264 -0.366291 12.4787 -0.918961 -0.212435 -0.332237 122 104 72
-0.783986 -0.388162 12.474 -0.93626 -0.15578 -0.314881 104 87 58
-0.730102 -0.327647 12.4124 -0.837767 -0.0612076 -0.542587 78 66 44
-0.727077 -0.335507 12.4302 -0.8996 -0.0354592 -0.435272 80 68 45
-0.657969 -0.380731 12.3917 -0.90759 -0.293354 -0.300373 67 55 35
-0.589822 -0.239468 12.1695 -0.342662 0.0910741 -0.935034 125 115 92
-0.443952 -0.239993 12.1511 -0.0342781 0.229289 -0.972755 63 52 33
-0.289352 -0.239482 12.1586 -0.0961378 -0.839384 -0.53497 26 22 15
1.07776 0.424435 10.8765 -0.789942 0.375748 -0.484568 106 87 62
1.14341 0.48711 10.6834 -0.698426 -0.454843 -0.552556 101 81 59
1.22751 0.491897 10.5639 -0.396779 -0.713813 -0.577095 82 62 37
1.75349 0.580204 10.8144 -0.0408 0.476854 -0.878035 87 58 25
5.41548 1.44485 11.8471 0.00202766 -0.567895 -0.823098 223 213 80
5.64484 1.50409 11.7244 -0.114984 -0.817819 -0.563872 224 214 87
5.83594 1.62772 11.6428 -0.325405 -0.440376 -0.836768 188 176 77
5.94646 1.73582 11.386 -0.233708 -0.62402 -0.74564 82 63 11
6.10012 1.787 11.2356 -0.155299 -0.508793 -0.846766 77 57 15
6.41127 1.89914 11.2449 -0.339347 -0.37565 -0.862398 76 55 18
6.39747 1.91437 11.0629 -0.10696 -0.767416 -0.632164 76 54 19
6.78694 1.97993 11.0934 -0.924297 -0.0782226 -0.373572 75 54 20
6.75254 1.95383 11.1383 -0.825409 -0.0176738 -0.564258 76 54 20
6.95878 2.01886 10.9753 -0.951893 0.17702 -0.250127 74 53 19
6.93842 2.13956 10.5221 -0.884644 -0.465489 0.0269494 53 35 13
6.82656 2.19766 10.3344 -0.883076 -0.45904 -0.0972594 43 28 10
6.67716 2.08828 10.0929 -0.847946 -0.519202 -0.106851 73 52 21
6.50744 2.15378 9.84764 -0.897146 -0.316515 0.308136 45 29 9
6.37478 2.11201 9.50538 -0.897329 -0.303502 0.320449 69 50 16
6.1409 2.1931 9.10499 -0.889898 -0.313171 0.33167 43 27 7
6.10288 2.22556 8.96474 -0.883677 -0.323729 0.338105 46 28 10
5.97224 2.18985 8.64874 -0.948073 -0.240512 -0.208114 75 45 20
6.20609 2.31951 8.59445 -0.799879 -0.514486 -0.309027 32 11 4
6.33457 2.30915 8.52815 -0.180904 -0.496412 -0.849028 26 13 6
6.83849 2.50464 8.25382 -0.662813 0.669973 -0.334387 21 18 8
-7.57402 -1.92526 10.5848 0.941215 0.0835664 -0.327308 198 153 82
-7.57513 -1.92577 10.5837 0.939508 0.0805063 -0.332931 197 153 82
-7.54545 -1.9051 10.6601 0.62216 0.0260669 -0.782456 199 154 86
-7.50381 -1.93897 10.7053 0.704229 0.0446519 -0.708567 194 149 79
-5.94375 -1.89585 13.0361 0.566932 0.616794 -0.546034 168 129 51
-5.63628 -1.8559 13.5852 0.714684 0.180786 -0.67568 161 122 47
-5.44025 -1.90474 13.9611 0.0866269 0.113986 -0.989699 128 99 47
-5.39519 -1.83736 13.9447 -0.196295 0.0215463 -0.980308 83 59 25
-3.04857 -1.06929 13.4099 -0.439634 0.78156 -0.44259 64 46 17
-1.10089 -0.487673 13.3421 -0.597567 0.700608 -0.389952 171 147 106
-0.9336 -0.577715 13.7191 -0.521605 0.756071 -0.39533 168 145 104
-0.945003 -0.504927 13.8205 -0.936868 0.114632 -0.33036 160 138 97
-0.83094 -0.319681 12.5565 -0.932812 -0.187725 -0.307606 161 141 102
-1.04901 -0.341137 12.3059 -0.558829 -0.0298457 -0.828746 178 155 108
-1.05618 -0.297896 12.3068 -0.554055 -0.06698 -0.829781 177 155 107
-0.794698 -0.274976 12.4631 -0.941622 -0.15002 -0.301401 99 83 56
-0.713071 -0.264917 12.4 -0.953827 -0.0709519 -0.291857 76 64 43
-0.532907 -0.115633 12.1382 -0.658695 0.0677836 -0.749351 134 121 95
-0.375908 -0.114544 12.1547 0.242464 0.317863 -0.91661 30 22 11
1.07861 0.619815 10.5706 -0.742756 -0.558254 -0.369684 132 111 79
1.71337 0.70389 10.7987 -0.192908 -0.0283818 -0.980806 82 56 24
1.94114 0.717432 10.9215 -0.161204 -0.0472938 -0.985787 100 71 27
2.09346 0.842932 10.9467 -0.472636 -0.0865527 -0.876997 165 142 64
2.35434 0.854337 11.0396 -0.320713 0.0697022 -0.944608 205 188 78
5.48153 1.62837 11.723 -0.14261 -0.765274 -0.627709 161 149 58
5.65786 1.6806 11.4869 -0.0963535 -0.794611 -0.599425 103 86 23
5.8718 1.77827 11.5061 -0.00943968 -0.508766 -0.860853 78 59 15
5.9699 1.92012 11.2628 -0.0326963 -0.484725 -0.874055 76 55 22
7.07432 2.17599 11.0035 -0.907915 -0.315138 0.276368 71 51 20
7.07432 2.17599 11.0035 -0.907915 -0.315138 0.276368 71 51 20
6.86779 2.21757 10.669 -0.917975 -0.382065 -0.106531 55 38 17
6.87558 2.30972 10.5329 -0.844926 -0.533179 0.042668 41 27 12
6.6333 2.24719 10.113 -0.845272 -0.453996 0.281786 39 27 12
6.41548 2.22917 9.67863 -0.878594 -0.364173 0.308952 40 27 13
6.36955 2.31093 9.5276 -0.919273 -0.223903 0.323737 40 28 13
6.12799 2.30031 8.83934 -0.888971 -0.296476 0.349045 48 29 10
6.17127 2.32151 8.8616 -0.887967 -0.298012 0.350292 48 29 10
6.25792 2.37078 8.5812 -0.197989 -0.275815 -0.940599 25 10 5
6.42885 2.42121 8.50359 -0.285392 0.0641672 -0.95626 19 13 8
6.62112 2.53984 8.4467 -0.582055 0.0894176 -0.808218 33 27 16
7.96091 3.08791 7.62297 -0.510404 0.0335353 -0.859281 52 44 25
8.01429 3.07443 7.45823 -0.901531 0.0215129 -0.43218 48 37 23
8.12849 3.19258 7.33334 -0.490948 -0.311981 -0.813411 86 59 25
8.53196 3.30164 7.22108 -0.979084 0.202787 -0.0165223 127 84 21
-5.84944 -1.76966 13.2704 0.643713 -0.0184537 -0.765044 162 123 46
-5.63491 -1.7847 13.4124 0.638261 -0.206228 -0.741683 159 121 45
-5.53308 -1.76231 13.9592 0.179104 -0.202174 -0.962833 156 118 42
-5.44246 -1.77038 13.9634 -0.138287 0.018499 -0.990219 133 104 48
-5.379 -1.78145 13.9838 -0.175022 -0.120363 -0.97718 38 22 6
-1.0314 -0.392384 13.3173 -0.539545 0.739197 -0.403087 187 165 120
-0.766418 -0.127796 12.5358 -0.938304 -0.173905 -0.298904 104 89 63
-0.247227 0.0424013 12.097 0.309804 0.297434 -0.903081 27 20 17
0.97644 0.645024 10.6363 -0.785319 -0.552187 -0.279936 103 85 49
0.967235 0.665224 10.5396 -0.769419 -0.370846 -0.520064 84 65 34
1.84539 0.853081 10.8886 -0.0594357 -0.0621607 -0.996295 87 59 23
5.04681 1.67731 11.4278 -0.168068 -0.534909 -0.828025 78 58 15
5.19474 1.74425 11.3182 -0.0440747 -0.714981 -0.697753 77 56 21
5.33942 1.76464 11.3426 -0.0906033 -0.739655 -0.66686 78 57 21
5.73867 1.88048 11.3418 -0.0921137 -0.79855 -0.594839 77 56 22
7.02638 2.40423 11.0529 -0.958919 -0.27179 0.0812702 69 49 21
7.12179 2.33063 10.9684 -0.934002 -0.214876 0.285427 67 48 22
7.06796 2.42789 10.7409 -0.915944 -0.273948 0.293258 44 31 13
-7.54614 -1.84207 10.658 0.746432 0.0165333 -0.665257 200 155 85
-5.91189 -1.70414 13.1014 0.59668 0.36955 -0.712324 166 127 51
-5.66076 -1.65835 13.424 0.368693 -0.37077 -0.852406 164 124 48
-5.50962 -1.70647 13.9859 0.116791 0.0282046 -0.992756 154 118 46
-5.56068 -1.69378 13.9483 0.245689 -0.184447 -0.951639 159 119 44
-5.42822 -1.71303 13.9979 -0.201621 -0.0173005 -0.979311 89 64 29
-5.40418 -1.64351 14.0171 0.672565 0.050297 -0.738327 61 39 15
-5.3434 -1.667 13.9823 0.377902 0.0605363 -0.923864 35 21 8
-1.52503 -0.389789 12.8916 0.464849 0.286143 -0.837877 127 106 70
-0.971313 -0.295137 13.3055 -0.442127 -0.437424 -0.783061 193 172 121
-0.850765 -0.0694774 12.4921 -0.935424 -0.180819 -0.303786 140 122 89
-0.750943 0.00955464 12.2507 -0.92436 -0.156024 -0.34816 49 39 24
-0.770317 -0.0477108 12.3373 -0.89579 -0.138435 -0.422369 71 59 41
-0.688489 -0.00452605 12.071 -0.88192 -0.047745 -0.468975 77 66 49
-0.639928 0.0527216 11.9673 -0.613518 -0.0834855 -0.785255 139 124 100
-0.569123 0.108664 11.9375 -0.516565 -0.128473 -0.846555 102 87 64
-0.484397 0.0776664 11.893 -0.201826 -0.166116 -0.965232 30 20 9
0.724297 0.550016 11.1364 -0.843359 -0.231306 -0.48502 181 166 136
0.622455 0.646765 10.8213 -0.645375 -0.747874 -0.155485 86 72 35
0.826697 0.642138 10.968 -0.600804 -0.7808 -0.171422 126 110 69
0.830519 0.636922 10.8098 -0.66914 -0.730184 -0.138141 114 97 61
0.561381 0.622167 10.4689 -0.702648 -0.699056 -0.13269 78 62 32
0.821717 0.696239 10.7408 -0.719342 0.632263 -0.287734 67 52 28
0.83719 0.7303 10.5791 -0.813399 0.523606 -0.253412 80 64 40
1.73731 0.982178 10.8287 -0.140892 -0.0102815 -0.989972 85 56 25
2.21069 1.01212 11.0297 -0.0304922 0.356317 -0.933868 177 154 68
2.21582 1.01124 11.0322 -0.0342159 0.352703 -0.93511 178 155 68
4.88232 1.79256 11.4089 -0.0311605 -0.728663 -0.684163 76 55 23
5.20671 1.89767 11.3989 0.0225187 -0.308578 -0.950933 75 54 21
6.02632 2.07456 11.5317 0.00384989 -0.404913 -0.914347 76 54 21
6.78042 2.4981 10.9217 -0.867123 -0.372829 -0.330297 68 46 20
7.05337 2.50908 10.9532 -0.958005 -0.277586 0.0719239 63 44 20
6.91274 2.56221 10.6406 -0.772185 -0.24188 -0.587559 41 28 13
7.17423 2.54889 10.6667 -0.915137 -0.0908482 -0.392774 36 24 11
6.11846 2.60412 8.65961 -0.262179 0.0363654 -0.964334 82 55 33
8.01915 3.35214 7.4519 -0.917692 -0.264012 -0.296882 48 35 19
8.23507 3.40396 7.21892 -0.538867 -0.00493291 -0.842376 115 76 19
-7.57981 -1.8059 10.6136 0.823883 0.0473397 -0.564779 201 155 85
-7.54586 -1.7793 10.66 0.685613 -0.0210551 -0.727662 199 154 84
-6.44285 -1.71155 12.4178 0.762935 0.0572451 -0.643936 185 142 65
-5.52869 -1.63438 13.9547 0.269277 -0.105857 -0.957227 154 117 44
-5.47045 -1.63708 14.0011 -0.056103 0.0175925 -0.99827 142 111 52
-5.45421 -1.57018 13.9976 -0.151556 -0.274888 -0.949456 120 94 45
-5.3471 -1.58179 13.9845 0.364286 0.0439578 -0.930249 28 18 8
-0.978072 -0.195143 13.4193 -0.289348 -0.551263 -0.782551 191 168 120
-0.835722 0.00433468 12.3813 -0.878463 -0.106247 -0.465848 85 69 46
-0.792976 0.00994634 12.5361 -0.941823 -0.153372 -0.299078 107 90 63
-0.781594 0.0786037 12.3776 -0.95459 0.0154718 -0.297521 72 59 39
-0.718819 0.139411 12.1854 -0.902318 -0.320292 -0.288505 48 37 23
-0.703384 0.0545251 12.3039 -0.913892 -0.283903 -0.290173 46 35 21
-0.701374 0.0991557 12.0662 -0.901349 -0.0391226 -0.431323 74 62 45
-0.704666 0.106262 12.0653 -0.887301 -0.0915944 -0.452003 72 60 43
-0.649064 0.152171 11.9608 -0.602018 -0.0454364 -0.797189 148 131 103
-0.562707 0.211239 11.9926 -0.517043 -0.0535088 -0.854285 158 139 103
0.428613 0.660629 11.0056 -0.654908 -0.737655 -0.164199 80 66 31
0.563531 0.638465 10.9358 -0.606658 -0.775222 -0.176059 97 83 45
0.210568 0.630492 10.619 -0.278838 -0.89589 -0.345876 89 74 38
0.596083 0.620219 10.9928 -0.000236273 -0.806014 -0.591896 139 124 84
0.311484 0.622628 10.4303 -0.675293 -0.722466 -0.148396 72 58 26
0.459781 0.646365 10.5719 -0.687439 -0.712625 -0.139974 73 59 26
2.03854 1.15443 11.0052 -0.0914871 0.488358 -0.867835 107 78 32
2.28176 1.16042 11.0226 -0.0302132 0.371458 -0.927958 180 162 74
2.28596 1.16292 11.0236 -0.0349116 0.380512 -0.924117 180 162 73
6.98176 2.58771 11.0608 -0.90782 -0.315201 0.276607 68 46 21
6.99703 2.67678 10.5477 -0.777244 -0.531021 -0.337505 36 24 12
7.07726 2.79098 10.4135 -0.774303 -0.600949 -0.198281 40 27 14
7.07326 2.71713 10.2227 -0.819313 -0.524546 -0.231469 40 27 14
7.07628 2.72318 10.2317 -0.833503 -0.49972 -0.235697 40 27 14
6.64102 2.73177 9.79822 -0.859506 -0.399175 0.319231 42 28 16
6.62895 2.73687 9.79617 -0.891679 -0.315231 0.324865 42 28 16
6.27179 2.64875 9.21963 -0.732285 -0.62397 0.2728 43 29 15
8.0955 3.44498 7.33309 -0.971098 -0.227003 0.0737468 82 55 20
8.14628 3.47469 7.34774 -0.834932 -0.343982 -0.42961 82 55 20
8.33184 3.58319 7.2774 -0.8254 -0.148784 -0.54459 112 75 22
8.37031 3.56001 7.30317 -0.992928 -0.0159682 0.117639 110 74 23
-7.55304 -1.71908 10.6592 0.699243 0.090027 -0.709193 200 155 85
-6.45334 -1.65641 12.4401 0.559578 0.0278224 -0.828311 183 141 64
-6.44945 -1.59038 12.4165 0.705761 0.0475146 -0.706855 182 140 63
-5.56995 -1.57533 13.9513 0.256103 -0.18253 -0.94926 157 119 43
-5.52747 -1.50978 13.9445 0.237758 0.202993 -0.949876 154 116 43
-5.47054 -1.48894 13.9685 -0.149538 0.0603949 -0.98691 139 107 49
-5.32111 -1.44237 14.0216 -0.0591598 -0.16479 -0.984553 30 21 11
-1.01059 -0.0965756 13.478 -0.44141 -0.356359 -0.823508 187 162 116
-0.869957 0.0671721 12.5006 -0.94179 -0.145224 -0.303219 145 126 92
-0.963146 0.1152 12.4224 -0.628833 0.0107193 -0.777467 163 141 101
-1.06754 0.0592828 12.3096 -0.610849 0.0551949 -0.789821 171 150 103
-0.847527 0.139412 12.3776 -0.950883 -0.0772843 -0.299749 84 67 44
-0.745314 0.152832 12.2735 -0.922585 -0.151916 -0.354623 48 37 24
-0.703367 0.207401 12.0497 -0.689909 0.0342122 -0.723087 82 70 50
-0.624528 0.257763 12.0398 -0.760541 0.333763 -0.556937 145 130 98
-0.543533 0.289788 11.9814 -0.168163 -0.196244 -0.966028 157 138 100
-0.0118637 0.382192 12.491 0.351903 0.175888 -0.919362 161 142 104
1.91141 1.17124 11.0957 -0.403165 0.751837 -0.521726 75 57 31
1.88864 1.13823 10.9546 -0.307943 0.34259 -0.887583 85 57 25
6.96067 2.67079 11.3389 -0.960286 -0.112779 0.25521 71 49 23
6.75624 2.6943 11.2769 -0.193455 -0.853611 -0.483657 70 48 23
6.77576 2.67741 10.9867 -0.725716 -0.126222 -0.676317 68 46 20
6.80346 2.70178 11.0401 -0.838885 -0.319572 -0.44062 69 47 21
6.77315 2.68247 10.9271 -0.61518 -0.0426189 -0.787234 66 45 20
6.73575 2.77201 10.7671 -0.633143 -0.204872 -0.74643 65 44 16
6.73073 2.6879 10.5891 -0.882052 -0.404998 -0.240751 46 31 14
7.05941 2.79274 10.4112 -0.788447 -0.582331 -0.198096 40 27 14
6.74758 2.87216 10.0044 -0.891738 -0.318061 0.321934 58 37 17
6.54501 2.80143 9.6281 -0.87743 -0.385232 0.285856 46 29 12
6.50351 2.80444 9.61399 -0.944854 -0.265322 0.191978 47 30 12
6.45346 2.8176 9.47096 -0.720535 -0.64043 0.265854 48 31 12
6.09893 2.68355 9.04749 -0.744378 -0.603494 0.285826 44 29 14
6.06435 2.6681 9.01358 -0.753408 -0.58956 0.291196 44 29 14
5.99158 2.72332 8.85742 -0.86998 -0.493085 -0.00150383 49 31 15
7.60669 3.33728 7.86668 -0.966443 -0.256681 -0.0102038 21 19 9
8.03533 3.51521 7.4534 -0.473842 -0.231978 -0.849506 57 45 25
8.12472 3.57608 7.4194 -0.359277 -0.0479012 -0.932001 77 59 32
-7.58487 -1.68477 10.6088 0.845798 0.278243 -0.4552 203 156 84
-7.35935 -1.66338 10.9758 0.870265 0.0524318 -0.489784 193 150 75
-6.44946 -1.52906 12.4099 0.662557 0.0575527 -0.746797 183 139 62
-5.44653 -1.42081 13.9706 -0.156004 -0.200912 -0.967108 112 83 39
-5.42028 -1.35731 13.991 -0.147721 -0.200949 -0.9684 60 37 13
-5.36662 -1.4244 13.9728 -0.209499 -0.0269338 -0.977438 29 16 6
-5.36091 -1.33985 14.0573 0.437153 0.0357827 -0.898675 28 17 7
-5.14886 -1.30865 13.9134 -0.17296 -0.215158 -0.961141 53 35 16
-1.26829 -0.062991 13.5696 -0.243104 -0.150548 -0.958246 117 96 59
-1.1854 -0.0289811 13.4627 -0.576594 -0.252909 -0.776902 150 126 86
-1.02361 0.0160657 13.486 -0.586112 -0.0922027 -0.804966 185 161 114
-0.903958 0.0624563 13.4019 0.412045 0.317176 -0.854177 204 181 129
-1.02036 0.107056 13.3765 -0.425298 -0.208782 -0.880643 188 165 115
-1.00119 0.145669 12.3903 -0.619871 -0.0074448 -0.784669 163 141 99
-0.916512 0.191823 12.3831 -0.652618 0.0487976 -0.756114 135 116 84
-0.79723 0.214151 12.3574 -0.731443 0.0900023 -0.675937 70 57 39
-0.744018 0.256165 12.223 -0.867048 -0.256358 -0.427211 46 37 25
-0.722575 0.325365 12.1114 -0.86065 -0.158613 -0.483864 52 42 28
-0.591429 0.390123 12.0196 0.118283 -0.191473 -0.974344 83 68 48
-0.428669 0.395729 12.1248 0.416721 0.127996 -0.899978 96 81 55
-0.486806 0.35437 12.0759 -0.37157 0.714198 -0.593176 131 114 84
0.038931 0.556706 12.5496 0.187944 0.288226 -0.938937 132 116 92
1.93831 1.29244 11.1182 -0.145393 0.559167 -0.816207 74 56 31
6.44917 2.73922 11.1692 -0.100489 -0.463041 -0.880622 73 49 21
6.5706 2.81151 11.1915 -0.166601 -0.893829 -0.416309 75 49 18
6.70379 2.78422 11.0884 -0.754356 -0.552155 -0.355066 72 48 18
6.69471 2.84912 10.6048 -0.896499 -0.298687 -0.327224 85 61 28
6.89043 2.91494 10.3675 -0.895802 -0.399714 0.194337 75 53 26
6.79591 2.89802 10.3252 -0.893346 -0.429863 0.130959 79 55 27
6.78541 2.98257 10.1844 -0.929648 -0.326664 0.170428 93 65 29
6.59394 2.93363 9.80734 -0.906797 -0.301165 0.294991 82 56 26
6.5105 2.94946 9.65811 -0.842772 -0.431429 0.321876 84 59 27
6.26546 2.84238 9.26524 -0.824958 -0.462019 0.32555 58 39 15
6.07743 2.87601 9.07221 -0.83637 -0.435114 0.333407 77 54 25
8.07792 3.62491 7.51043 -0.368614 -0.0285717 -0.929143 58 48 27
8.30192 3.76785 7.27919 -0.931152 -0.319133 -0.176383 112 75 25
-7.60628 -1.65975 10.5715 0.890774 0.30999 -0.332308 199 152 80
-7.58845 -1.64982 10.6061 0.927102 0.350451 -0.132916 202 155 84
-7.55943 -1.6591 10.6643 0.671929 0.0338535 -0.739841 202 155 84
-5.86095 -1.35546 13.2885 0.398369 -0.0495152 -0.915888 167 127 47
-5.67622 -1.34321 13.586 0.702767 -0.0745408 -0.707504 162 123 45
-5.73483 -1.33854 13.5309 0.55478 -0.212148 -0.804495 165 126 48
-5.71913 -1.37038 13.534 0.86845 0.186458 -0.459379 166 125 50
-5.72376 -1.3164 13.608 0.72066 0.0209079 -0.692973 172 131 53
-5.62263 -1.36062 13.5162 0.737868 0.30354 -0.602838 159 121 43
-5.54775 -1.34377 13.9543 0.344685 -0.059029 -0.936861 156 119 44
-5.4925 -1.2693 13.9291 0.356717 0.080446 -0.930742 146 112 46
-5.44417 -1.2784 13.9701 -0.196968 -0.0011078 -0.980409 107 79 36
-5.3888 -1.27631 14.0109 0.386847 0.0171645 -0.921984 46 29 11
-5.18851 -1.18432 13.9496 -0.219959 -0.333325 -0.916795 37 24 14
-1.3133 0.111446 13.6261 -0.515365 -0.624237 -0.587135 110 90 53
-1.20494 0.0248649 13.9068 -0.353427 -0.852843 -0.38438 115 94 57
-1.24625 0.154442 13.5234 -0.58527 0.0843143 -0.806443 126 105 68
-1.23862 0.0495584 13.5654 -0.605409 0.169796 -0.777592 124 102 65
-1.5485 0.0722532 12.867 0.498881 0.322385 -0.804479 119 99 62
-1.05087 0.206374 13.434 -0.462389 -0.0715261 -0.883787 182 160 112
-0.982581 0.202686 13.3223 -0.547585 -0.749551 -0.371919 201 177 125
-0.980238 0.251119 12.4334 -0.651077 0.0753397 -0.755263 160 139 99
-0.970786 0.308811 12.4144 -0.577538 0.392489 -0.715823 158 137 100
-0.970642 0.371011 12.3108 -0.97066 -0.0243019 -0.239226 146 128 96
-1.0636 0.353991 12.1193 -0.904696 -0.136867 -0.403475 136 118 82
-0.967549 0.313 12.239 -0.941007 -0.0962701 -0.324403 115 98 69
-0.680701 0.502929 11.8971 0.115615 -0.184326 -0.976042 159 144 113
4.21415 1.95752 12.2302 0.101567 -0.113483 -0.988335 62 42 15
5.21159 2.41674 11.7198 -0.935089 0.337956 -0.106742 71 49 21
5.31916 2.46679 11.4436 0.0343438 -0.494404 -0.868554 70 49 21
6.34145 2.82918 10.9987 -0.374453 0.568047 -0.732876 99 70 31
6.52077 2.88383 10.689 -0.825861 -0.505059 -0.250738 108 78 33
6.39659 2.9443 10.4945 -0.775448 -0.536548 -0.332861 119 84 34
6.49854 2.9067 10.3637 -0.834685 -0.402766 -0.375607 107 77 34
6.37783 2.97444 10.1771 -0.878038 -0.420794 0.227997 118 83 32
7.84478 3.69763 7.62002 -0.872981 -0.459794 0.16277 68 55 33
8.1727 3.74657 7.37716 -0.732847 0.0717534 -0.6766 82 56 24
8.1547 3.8075 7.3723 -0.652087 0.22856 -0.722871 80 51 19
8.38432 3.86297 7.14536 -0.922917 0.371195 -0.102167 125 83 18
8.338 3.87226 7.15318 -0.934117 0.323057 0.151854 125 83 21
-7.60962 -1.62719 10.5558 0.83058 0.479341 -0.283495 198 151 78
-7.60687 -1.59413 10.6047 0.886348 0.39974 -0.233656 200 152 81
-7.5906 -1.62583 10.6214 0.842267 0.199361 -0.500841 202 156 84
-7.56162 -1.59985 10.6737 0.790482 -0.048074 -0.610596 199 153 81
-5.51704 -1.20861 13.9113 0.462658 0.181208 -0.86782 154 116 44
-5.47697 -1.2157 13.9679 0.0375681 0.068716 -0.996929 138 107 49
-5.41049 -1.21425 13.9833 0.333778 0.0400943 -0.941799 58 37 12
-5.39643 -1.16272 14.026 0.426453 -0.0147379 -0.90439 42 26 10
-5.26304 -1.11183 13.9784 -0.175809 -0.347051 -0.921221 35 24 12
-3.39169 -0.456358 13.1535 -0.618379 -0.212842 -0.756509 103 75 30
-1.04585 0.3131 13.5554 -0.447625 -0.0108265 -0.894156 176 153 108
-1.07979 0.253479 13.4028 -0.930686 -0.160426 -0.328767 190 167 121
-1.03507 0.321297 13.5952 -0.435099 -0.0407187 -0.899462 174 152 107
-1.02788 0.43216 12.3394 -0.942326 -0.0482546 -0.3312 162 140 100
-1.09638 0.412564 12.3018 -0.889285 -0.0214825 -0.456849 163 141 98
-0.972535 0.437855 12.3018 -0.843965 -0.288762 -0.45204 138 120 86
-0.972535 0.437855 12.3018 -0.843965 -0.288762 -0.45204 138 120 86
-0.494472 0.581371 12.2437 0.0900514 0.0588099 -0.994199 157 141 106
-0.256066 0.696084 12.496 -0.0662106 0.732468 -0.677574 100 81 47
4.31053 2.14745 12.1845 -0.0486856 -0.086596 -0.995053 82 61 32
4.05119 2.10802 12.1108 0.0936733 -0.108612 -0.989661 60 40 16
4.02456 2.1274 12.1024 0.0456841 -0.0969015 -0.994245 59 39 16
4.53051 2.2995 12.0342 -0.363829 -0.00257507 -0.931462 92 69 32
4.71082 2.35099 11.9645 -0.715563 0.458474 -0.52704 86 64 31
5.07143 2.47374 11.7095 -0.931592 0.254778 -0.259276 70 48 20
5.19633 2.57755 11.6138 -0.967738 0.202201 -0.150328 70 47 20
5.25831 2.50332 11.5406 -0.907454 0.418512 -0.0370811 70 48 22
6.2137 2.93335 10.3781 -0.646027 -0.744642 0.167803 124 88 35
6.36998 3.03559 10.3488 -0.909626 -0.41038 -0.0645602 126 90 34
6.05663 3.06009 8.83361 -0.516388 -0.606071 -0.604997 81 44 12
7.89131 3.81376 7.48389 -0.565891 -0.103232 -0.817992 53 34 14
8.13921 3.87343 7.39349 -0.685497 0.275028 -0.674132 81 52 24
8.29555 3.93017 7.28581 -0.97235 0.198539 0.122958 111 73 26
8.2945 3.93267 7.27388 -0.986259 0.111489 -0.121914 113 74 25
8.00426 3.89564 7.15545 -0.480134 -0.867679 -0.128857 117 76 23
-7.62942 -1.57064 10.556 0.873857 0.31997 -0.366051 196 149 77
-7.59203 -1.56814 10.6316 0.792195 0.0816239 -0.604784 202 155 83
-7.56635 -1.54014 10.6752 0.782754 -0.0105635 -0.622241 199 152 80
-6.0374 -1.24499 12.9791 0.576681 -0.0523955 -0.815288 173 132 53
-5.98663 -1.21452 12.9885 0.55718 -0.241615 -0.794464 169 129 49
-5.58383 -1.16268 13.9561 0.316977 -0.0761942 -0.945368 157 117 42
-5.46902 -1.09727 13.9561 0.346255 0.0168825 -0.937989 130 99 44
-5.53583 -1.09869 13.9399 0.332576 -0.101537 -0.937595 155 117 44
-5.45317 -1.16053 13.9937 0.328169 0.0817963 -0.941071 100 73 33
-5.50265 -1.15583 13.9483 0.341867 0.0158936 -0.939614 150 114 47
-5.50001 -1.15607 13.9481 0.352292 0.109472 -0.929466 149 114 47
-5.41929 -1.06969 14.0494 0.78057 0.0828654 -0.619552 45 27 11
-5.36935 -1.09226 14.0258 0.335077 0.128481 -0.93339 27 17 9
-1.01548 0.440932 13.685 -0.43116 0.107598 -0.895837 177 153 110
-1.08775 0.457793 13.3111 -0.548738 -0.318275 -0.773038 181 157 110
-1.03276 0.489154 12.3569 -0.946037 -0.0608652 -0.318291 162 140 101
-1.11475 0.477248 12.2464 -0.904837 -0.017556 -0.425395 162 139 97
-1.03276 0.489154 12.3569 -0.946037 -0.0608652 -0.318291 162 140 101
-0.97103 0.508836 12.3519 -0.94743 -0.0866462 -0.308008 144 126 90
-0.245106 0.732955 12.5876 0.308735 0.297167 -0.903535 82 64 32
-0.264323 0.701901 12.5341 0.299142 0.296368 -0.907017 95 77 43
-0.246976 0.699553 12.5469 -0.0597742 0.716178 -0.695354 100 82 47
4.17489 2.29719 12.1337 -0.135202 0.0634136 -0.988787 80 62 35
4.45949 2.33141 12.2374 -0.237072 -0.0768905 -0.968445 107 85 50
4.67079 2.48042 12.0731 -0.469022 -0.125473 -0.874228 108 86 51
4.85488 2.52593 12.0137 -0.497199 0.0757352 -0.864325 68 46 18
4.96007 2.53987 11.7697 -0.850544 0.0232611 -0.525389 68 46 19
7.79696 3.8983 7.67894 -0.734223 -0.559626 -0.384364 69 46 22
8.04676 3.91074 7.56266 -0.351073 -0.755332 -0.553373 62 43 21
7.81043 3.93101 7.33295 -0.2058 -0.943157 -0.26096 81 50 17
-7.63333 -1.50935 10.5534 0.796708 0.189628 -0.573845 196 149 76
-7.61369 -1.53506 10.6019 0.899595 0.292695 -0.324126 199 152 80
-7.59752 -1.51001 10.6341 0.770293 0.0870179 -0.631725 202 154 82
-7.54151 -1.51231 10.7191 0.839693 -0.0245799 -0.542505 194 147 75
-7.54152 -1.51144 10.7177 0.829304 -0.0134879 -0.558635 194 147 75
-6.03767 -1.18444 12.9814 0.733967 -0.0223818 -0.678816 172 132 54
-5.50194 -1.04012 13.947 0.349446 -0.0145312 -0.936844 149 114 47
-5.55442 -1.01356 13.9197 0.526967 0.428672 -0.733857 157 119 45
-5.42755 -0.99826 14.0417 0.74828 0.0961999 -0.65637 52 32 12
-5.46441 -1.04013 14.0075 0.754294 0.0938806 -0.64979 101 74 33
-5.37795 -1.02157 14.0357 0.480903 0.140881 -0.865381 34 21 10
-5.37728 -1.02131 14.0299 0.423405 0.123257 -0.897517 34 21 10
-1.08037 0.449241 13.8097 -0.506223 0.151539 -0.848984 143 121 80
-1.01783 0.515779 13.6313 -0.817426 -0.21302 -0.535198 181 156 114
-1.0733 0.575779 13.336 -0.712095 -0.461146 -0.529401 180 155 110
-1.0435 0.559132 12.337 -0.925041 -0.109979 -0.363599 154 133 92
-0.999744 0.570406 12.5808 -0.660166 0.209168 -0.721408 166 144 102
-0.982021 0.638964 12.3723 -0.948639 -0.0721605 -0.30802 142 124 87
3.8867 2.26958 12.0419 0.0620835 -0.165945 -0.984179 53 36 17
3.94118 2.34154 12.1028 -0.0596417 -0.19723 -0.978541 51 33 15
3.88431 2.33207 12.0472 0.0632015 -0.189685 -0.979809 51 33 15
4.33857 2.48731 12.2105 -0.26503 -0.0391981 -0.963443 101 82 51
4.51886 2.48563 12.1584 -0.358773 -0.0229996 -0.933142 106 85 47
4.85498 2.71594 12.0175 -0.974519 0.109235 -0.195909 64 41 19
6.21028 3.4162 8.57686 -0.803363 -0.419364 -0.42278 63 47 23
6.54287 3.51991 8.29799 -0.609685 0.609312 -0.506975 53 45 29
7.78497 4.00347 7.53547 -0.201804 -0.91474 -0.350037 81 52 11
-7.62268 -1.47591 10.6005 0.869565 0.226738 -0.438688 199 151 79
-7.57075 -1.48073 10.676 0.775131 0.015423 -0.631612 199 152 80
-7.54473 -1.4516 10.7182 0.749867 0.042047 -0.660251 193 147 74
-7.54706 -1.45307 10.7185 0.833884 0.0639804 -0.548219 193 147 74
-5.51718 -0.977984 13.9604 0.518186 0.0575153 -0.853332 150 115 47
-5.56813 -0.952256 13.9572 0.322534 0.279351 -0.904397 157 119 44
-5.52181 -0.910993 13.9535 0.641426 0.0528747 -0.765361 151 116 47
-5.47675 -0.888518 13.9978 0.838718 0.0867828 -0.537606 114 86 39
-5.46943 -0.966266 14.0032 0.80559 0.104962 -0.583102 106 79 36
-5.43721 -0.923146 14.0505 0.835907 0.0959447 -0.540421 52 32 11
-5.3905 -0.87727 14.051 0.589378 0.101956 -0.801398 33 21 8
-5.39969 -0.877432 14.0585 0.683244 0.108626 -0.722065 38 23 8
-5.4007 -0.875842 14.0544 0.640182 0.118846 -0.758974 38 24 8
-5.39009 -0.949278 14.035 0.446689 0.09609 -0.889514 35 21 7
-4.16988 -0.396312 13.3183 0.182821 0.0279812 -0.982748 34 23 11
-1.10868 0.616212 13.9616 -0.265306 -0.133828 -0.954831 121 100 62
-1.04554 0.576544 13.8312 -0.907112 -0.283546 -0.311046 153 129 92
-1.04377 0.647596 13.646 -0.826959 -0.209717 -0.521687 169 145 102
-1.19477 0.665846 13.0176 -0.916517 -0.311806 -0.250546 189 162 116
-1.0058 0.771464 12.324 -0.927305 -0.134858 -0.349168 140 122 84
-1.04482 0.697705 12.3816 -0.946988 -0.0732721 -0.312802 152 132 89
-0.977104 0.708481 12.1865 -0.963409 -0.14418 -0.225953 69 55 36
4.07629 2.48277 12.1675 0.0735825 0.00925055 -0.997246 48 31 12
5.96911 3.41384 8.64629 -0.872875 -0.340453 -0.349544 102 68 17
7.55424 3.99475 7.65334 -0.228084 -0.887561 -0.400266 114 77 25
8.27795 4.23985 7.34453 -0.202379 -0.63008 -0.749695 111 71 19
-7.62153 -1.41445 10.5974 0.883294 0.1767 -0.434245 198 150 77
-7.60277 -1.45053 10.6357 0.784071 0.0809069 -0.615375 202 154 82
-7.57409 -1.42152 10.6768 0.768687 0.00338884 -0.639616 200 153 80
-7.55067 -1.39497 10.7148 0.823348 -0.0100884 -0.567448 194 147 74
-7.39854 -1.38062 10.9283 0.783829 0.0552068 -0.618517 197 152 79
-5.98311 -0.936151 13.1336 0.0995631 0.900235 -0.423867 176 134 56
-5.51454 -0.837012 13.9345 0.786292 0.0464505 -0.616107 149 115 48
-5.44295 -0.846562 14.0435 0.833593 0.07126 -0.547763 55 35 12
-5.48402 -0.812541 13.99 0.839302 0.0766106 -0.53824 122 93 43
-5.40452 -0.808465 14.0862 0.780037 0.113382 -0.615376 38 23 8
-5.33576 -0.783125 14.1089 0.586155 0.147076 -0.796738 40 27 13
-5.24089 -0.793947 14.0635 -0.168595 0.81609 -0.552787 38 25 12
-5.29082 -0.721674 14.0582 0.109395 0.856745 -0.504005 34 24 11
-3.07801 0.0759976 12.8761 -0.0111621 -0.764199 -0.644884 74 54 27
-3.10614 0.101579 12.9501 0.0811102 -0.865215 -0.494797 80 59 27
-3.07776 0.113617 12.8301 -0.00232023 -0.861543 -0.507679 76 56 27
-1.16586 0.72023 13.9724 -0.26643 0.0111718 -0.96379 113 93 54
-1.06973 0.710039 13.8507 -0.919461 -0.218929 -0.32659 143 121 84
-1.03149 0.789937 13.7404 -0.897364 -0.305962 -0.318002 168 144 104
-1.0769 0.709149 13.3939 -0.717895 -0.417525 -0.557045 177 152 105
-1.11425 0.780888 13.1839 -0.65022 -0.684704 -0.329234 178 154 106
-1.11365 0.781047 13.1851 -0.653373 -0.681836 -0.328943 178 154 106
-1.05969 0.826926 12.3997 -0.89541 -0.143678 -0.421422 157 134 88
-1.06255 0.849808 12.2029 -0.455029 -0.10919 -0.883757 136 119 82
-0.0118628 1.24194 12.217 -0.522053 -0.825821 -0.213261 56 42 23
0.980511 1.63716 10.6769 -0.924913 -0.372802 -0.0745248 132 114 74
4.76991 2.8903 12.5549 -0.818398 0.0974246 -0.566333 90 70 46
4.01176 2.71738 9.55584 -0.399584 0.54482 -0.737227 123 85 37
3.66044 2.67635 9.29835 -0.38211 0.508123 -0.771883 91 52 12
5.35935 3.24462 9.05565 -0.541971 -0.319628 -0.777242 129 88 22
6.15958 3.5602 8.57836 -0.728021 -0.0492655 -0.683783 88 67 38
7.56318 4.09552 7.41035 -0.231021 -0.916797 -0.325751 118 76 20
-7.60428 -1.38844 10.6407 0.766827 0.00414421 -0.64184 201 154 82
-7.57283 -1.35984 10.6763 0.626436 0.00564659 -0.779452 198 151 78
-6.08883 -0.903951 12.9622 0.626116 0.284627 -0.725924 179 136 59
-5.57013 -0.809727 13.9266 0.493168 0.688028 -0.532357 156 118 45
-5.52 -0.769145 13.9373 0.728324 0.0475656 -0.68358 151 116 48
-5.57529 -0.741883 13.9274 0.483135 0.73463 -0.47634 155 117 44
-5.45089 -0.70326 14.0418 0.780699 0.0353296 -0.623908 55 35 13
-5.44635 -0.77508 14.0396 0.760913 0.040852 -0.647567 54 34 11
-5.4894 -0.74131 13.995 0.717273 0.0507133 -0.694944 124 95 45
-5.48977 -0.739666 13.9946 0.717218 0.0500804 -0.695047 125 95 45
-5.37269 -0.699584 14.1408 0.784882 0.03621 -0.618586 32 22 11
-5.31394 -0.655051 14.123 0.279573 0.641408 -0.714448 37 25 13
-3.14373 0.129507 12.7193 -0.015942 -0.884484 -0.466298 77 56 27
-3.14152 0.168693 12.7449 -0.0121541 -0.885815 -0.46388 75 55 27
-3.06869 0.192232 12.7881 0.151124 -0.561419 -0.813615 76 56 28
-3.11168 0.167469 12.7831 -0.0152061 -0.882502 -0.470062 75 56 27
-1.11323 0.804672 13.9096 -0.916688 -0.226669 -0.329097 118 99 63
-1.05446 0.89467 13.8532 -0.928571 -0.176765 -0.326359 150 128 90
-1.08513 0.8369 13.5107 -0.703026 -0.402676 -0.58618 171 147 102
-1.13002 0.904216 13.2804 -0.749266 -0.581067 -0.317744 175 151 103
-1.17444 0.844787 12.1687 -0.594067 -0.0964596 -0.798612 155 134 89
-1.16716 0.852797 12.2248 -0.620251 -0.11097 -0.776514 158 136 90
-0.0603934 1.31163 12.0006 -0.111109 -0.933546 -0.340802 63 49 27
-0.219891 1.25047 10.8347 -0.691332 0.598326 -0.40505 80 62 41
-0.123913 1.27572 10.7288 -0.796652 0.514666 -0.316962 67 52 30
0.634485 1.64518 10.3974 -0.939849 -0.340539 -0.0267695 35 25 13
0.923516 1.67313 10.4993 -0.8554 -0.517798 -0.0132803 58 44 23
4.83776 3.09253 12.5873 -0.734658 -0.43483 -0.520769 109 75 43
4.83772 3.09249 12.5871 -0.734507 -0.436793 -0.519338 109 75 43
4.84741 3.0994 12.5852 -0.735931 -0.405829 -0.541948 113 78 46
4.74547 3.08771 11.9782 -0.74168 -0.62082 -0.253956 175 142 100
4.74547 3.08771 11.9782 -0.74168 -0.62082 -0.253956 175 142 100
3.60601 2.7335 9.39821 -0.541654 -0.177086 -0.821737 87 46 9
4.28864 2.98635 9.54111 -0.44954 0.541812 -0.710179 104 64 17
5.98997 3.63286 8.51743 -0.977955 0.0032956 -0.208788 81 59 30
7.43037 4.14021 7.58599 -0.611292 -0.380321 -0.69403 121 77 16
-7.63965 -1.32603 10.5493 0.813794 -0.117766 -0.569096 195 148 73
-7.62254 -1.35525 10.5975 0.887886 0.0988926 -0.449308 198 150 77
-7.62324 -1.36165 10.5901 0.88555 0.0606917 -0.460562 197 150 76
-7.60461 -1.33411 10.6445 0.737604 0.0848468 -0.669881 201 154 81
-7.54314 -1.32678 10.7113 0.820694 0.0298133 -0.57059 193 146 73
-6.06051 -0.793901 12.9921 0.65393 0.129318 -0.745421 173 132 54
-6.00814 -0.767795 13.0105 0.640017 -0.0941879 -0.762566 170 129 50
-5.86266 -0.757607 13.2156 0.858011 0.225168 -0.461645 163 123 44
-5.89934 -0.796955 13.2825 0.890053 -0.00269429 -0.455849 167 126 47
-5.73597 -0.764835 13.5419 0.663964 -0.264968 -0.699245 161 122 44
-5.52594 -0.701854 13.9394 0.713216 0.054612 -0.698814 151 116 47
-5.53482 -0.635126 13.9606 0.733952 0.0138618 -0.67906 153 119 50
-5.49398 -0.597666 13.9974 0.756904 0.0713192 -0.649623 122 93 46
-5.49233 -0.669752 13.994 0.75061 0.0313735 -0.66 124 96 46
-5.49648 -0.600765 13.9923 0.697784 0.0706633 -0.712814 127 97 48
-5.45502 -0.631546 14.0417 0.777017 0.0454844 -0.627835 56 35 12
-3.20617 0.223492 12.5622 0.0748112 -0.875934 -0.476595 76 57 28
-3.20423 0.262603 12.6005 -0.000812113 -0.88971 -0.456526 76 56 28
-1.27645 0.927137 14.0751 -0.203501 -0.90931 -0.362965 107 89 52
-1.06751 1.01398 13.8223 -0.910535 -0.261617 -0.32013 152 129 89
-1.06835 1.02528 13.9268 -0.944579 -0.201237 -0.259373 136 115 76
-1.12486 0.926605 13.4057 -0.808442 -0.485682 -0.332467 170 147 101
-1.1443 0.994281 13.149 -0.752728 -0.579896 -0.311643 176 151 103
-1.04055 0.964797 13.0628 -0.709483 0.00290737 -0.704717 190 165 117
-1.10532 1.05512 11.9663 -0.62999 -0.184839 -0.754286 82 67 44
-0.277628 1.35305 11.8635 -0.0627166 -0.932277 -0.356268 112 93 55
-0.332646 1.34065 11.1795 -0.183491 0.658944 -0.729468 82 64 37
-0.205081 1.34137 10.9118 -0.593055 0.665782 -0.452791 95 76 48
-0.0670887 1.47452 10.8552 -0.638109 0.632341 -0.439274 151 134 99
0.183137 1.55048 10.8962 -0.507816 0.572769 -0.643474 130 116 82
0.324221 1.59756 10.5994 -0.453105 0.622193 -0.638413 59 47 22
4.73886 3.20697 12.4829 -0.718564 -0.375674 -0.585265 193 160 114
4.70428 3.08606 12.5194 -0.699069 -0.484963 -0.525465 129 95 62
4.73754 3.20764 12.4818 -0.71864 -0.37363 -0.586478 193 160 114
4.70312 3.17949 12.35 -0.753722 -0.603486 -0.260206 190 156 110
3.80858 2.88256 11.1054 -0.0443002 -0.825905 -0.562067 167 137 87
4.31841 3.03418 11.3787 -0.136674 -0.962209 -0.235531 159 128 78
3.26748 2.72578 10.4347 -0.304509 -0.851772 -0.426332 125 95 44
3.79863 2.91268 10.5751 -0.0957177 -0.952737 -0.288324 112 76 29
3.90211 2.8886 10.4395 -0.822041 -0.48419 -0.299681 108 76 29
3.73175 2.90201 9.43005 -0.302887 0.367487 -0.879325 125 83 26
5.97287 3.73222 8.66068 -0.720504 -0.00111586 -0.69345 108 70 21
-7.60638 -1.27497 10.6477 0.668382 0.0158278 -0.74365 201 154 80
-7.57797 -1.3024 10.6848 0.903909 -0.00449154 -0.427701 198 151 77
-6.04048 -0.738223 12.9635 0.652661 0.36889 -0.661781 173 132 54
-5.58618 -0.538506 13.9194 0.54773 0.451179 -0.704578 157 120 45
-5.53484 -0.567446 13.9508 0.689884 0.0613899 -0.721312 152 117 50
-5.46651 -0.491575 14.0395 0.753707 0.0559254 -0.654827 61 39 15
-5.46167 -0.56191 14.0402 0.738484 0.0799885 -0.669509 59 37 13
-5.502 -0.52946 13.9904 0.742214 0.0631819 -0.667178 130 100 47
-5.41941 -0.523188 14.0774 0.648233 0.097203 -0.755212 38 23 9
-3.74246 0.169605 13.2487 -0.60657 -0.436481 -0.664498 72 52 22
-3.18311 0.363872 12.6317 -0.00848171 -0.893565 -0.448853 74 54 28
-1.28969 0.968261 14.0524 -0.196069 -0.911351 -0.361933 107 89 52
-1.20287 1.02543 14.0662 -0.488458 -0.803883 -0.339383 104 88 50
-1.37109 1.04238 13.4963 -0.437114 -0.461547 -0.771949 111 92 53
-1.07592 1.10797 13.7859 -0.720001 0.0696065 -0.690473 155 132 91
-1.10386 1.09544 13.6179 -0.917859 -0.175393 -0.356052 161 138 94
-1.12889 1.1512 11.9671 -0.640632 -0.161164 -0.750745 98 81 54
-0.69949 1.24328 11.6553 -0.0826785 -0.877901 -0.47165 221 205 154
-0.378378 1.39378 11.8006 0.152024 -0.837321 -0.52515 159 141 91
-0.399554 1.39125 11.7129 -0.0862596 -0.930746 -0.355347 140 120 73
-0.216252 1.44202 10.8791 -0.449548 0.721768 -0.526267 166 145 108
0.811621 1.84594 10.7857 -0.990814 0.0897118 -0.10119 44 35 23
0.639731 1.77356 10.3929 -0.994729 0.051367 -0.0887446 31 24 16
4.59135 3.18507 12.341 -0.723268 -0.638757 -0.262438 190 158 110
3.53208 2.91619 11.4398 0.142295 -0.633465 -0.760575 180 150 96
3.77656 2.95492 11.5175 -0.23324 -0.874322 -0.42563 177 149 96
3.38199 2.87365 11.053 -0.15467 -0.964998 -0.211791 136 107 57
3.25025 2.82053 10.7783 -0.162138 -0.806555 -0.568489 123 93 44
3.23039 2.8169 10.7412 -0.383928 -0.760952 -0.523022 119 89 41
3.22929 2.78865 10.5612 -0.153365 -0.794193 -0.587994 109 80 34
3.17746 2.76969 10.5146 -0.0758743 -0.839882 -0.537439 114 83 35
3.21569 2.71904 10.3315 -0.0135329 -0.879238 -0.476191 125 92 39
3.79712 2.99766 9.62928 -0.575295 0.0777352 -0.814244 135 93 30
6.21215 3.9031 8.57615 -0.861541 0.349859 -0.367894 131 93 39
-7.60015 -1.24099 10.6385 0.827572 0.0745467 -0.556388 200 153 80
-7.57155 -1.20453 10.6832 0.872166 0.104962 -0.477818 196 148 73
-5.91126 -0.562727 13.3346 0.788453 0.37195 -0.489893 170 129 51
-5.54056 -0.427866 13.9379 0.783954 0.0674165 -0.617147 151 117 48
-5.53708 -0.498424 13.9422 0.742786 0.0808712 -0.664627 153 118 50
-5.46969 -0.421795 14.0391 0.741021 0.0364743 -0.670491 60 38 13
-5.50398 -0.46016 13.9928 0.756426 0.0570946 -0.651583 127 98 47
-5.44696 -0.390428 14.0984 0.799157 0.0772988 -0.596132 40 23 7
-3.1867 0.391479 12.6353 -0.00477841 -0.894586 -0.446871 74 54 28
-3.18505 0.43353 12.6505 -0.00451151 -0.895401 -0.445238 66 48 25
-3.18715 0.452842 12.3075 0.573418 0.236329 -0.784436 79 58 30
-3.1872 0.45268 12.3051 0.572357 0.238621 -0.784518 79 58 30
-1.84532 0.985391 13.2935 0.0885332 -0.892873 -0.441519 102 82 45
-1.38487 1.07959 14.1901 -0.644475 -0.638188 -0.42115 108 88 52
-1.24304 1.12483 13.9979 -0.407356 -0.859551 -0.3086 104 87 51
-1.24304 1.12483 13.9979 -0.407356 -0.859551 -0.3086 104 87 51
-1.2588 1.11941 13.9079 -0.206222 -0.914435 -0.348255 103 86 50
-1.79465 1.00864 12.5904 -0.778134 -0.475395 -0.410495 114 94 57
-1.11569 1.27803 13.5112 -0.900923 -0.361454 -0.240186 170 145 102
-1.15905 1.19841 13.1161 -0.701289 -0.64441 -0.304843 173 148 101
-1.18016 1.21405 12.0484 -0.611613 0.104102 -0.784279 135 115 76
-1.13666 1.24884 11.9437 -0.709561 0.0578179 -0.702268 88 73 47
-0.528803 1.44163 11.6286 -0.159095 -0.789672 -0.592542 164 143 92
-0.683503 1.39443 11.4543 0.00262064 -0.922294 -0.386481 142 122 74
-0.35193 1.50288 11.7737 -0.0421245 -0.794308 -0.606054 165 143 96
-0.634115 1.41963 11.2146 -0.105814 -0.934244 -0.340575 131 112 65
-0.36186 1.50983 11.2611 0.182985 0.148055 -0.971903 119 102 68
-0.131008 1.55149 11.2711 -0.651616 0.617907 -0.439987 121 103 69
-0.07546 1.62353 11.1787 -0.356063 0.668544 -0.652892 53 40 17
0.826712 2.01067 11.0214 -0.0502879 0.365523 -0.929443 68 55 35
0.89221 1.95045 10.9789 -0.838333 -0.544613 -0.0243995 48 38 23
3.33939 2.9071 11.4128 -0.529804 -0.757303 -0.381839 164 135 82
2.90626 2.74696 10.9354 -0.466605 -0.884028 -0.0278404 148 121 70
2.82499 2.75738 10.7695 -0.425588 0.50654 -0.749862 118 87 39
5.83614 3.92879 8.88579 -0.516273 0.362635 -0.775859 133 85 13
-7.63333 -1.2148 10.5984 0.89159 0.156388 -0.424982 196 149 74
-7.60553 -1.18064 10.6482 0.753331 0.0127944 -0.657517 200 152 78
-7.61378 -1.18485 10.6484 0.718178 0.073023 -0.692018 200 152 78
-7.41678 -1.14345 10.9353 0.846232 0.0623624 -0.529152 196 150 76
-7.39279 -1.11271 10.9785 0.786727 0.0560682 -0.61475 190 144 68
-6.04849 -0.568162 13.0148 0.804594 0.174109 -0.567728 169 128 50
-5.89109 -0.512645 13.335 0.730895 0.481674 -0.48351 167 127 49
-5.77567 -0.497229 13.5298 0.78531 0.379041 -0.489507 164 124 46
-5.55387 -0.359871 13.9463 0.743392 0.0894563 -0.662847 154 119 48
-5.51486 -0.320766 13.9845 0.837407 0.0678915 -0.542346 132 101 47
-5.51016 -0.389331 13.9904 0.772644 0.0568097 -0.632292 131 102 48
-5.48733 -0.355866 14.0572 0.854816 0.0938789 -0.510368 70 46 18
-5.45442 -0.312856 14.0889 0.793371 0.0734318 -0.604293 42 23 7
-5.37753 -0.301715 14.1593 0.739934 0.0896969 -0.666673 42 27 13
-2.53375 0.779121 15.6148 -0.397115 0.705169 -0.587398 69 49 24
-3.18777 0.536505 12.3474 0.524133 0.172129 -0.83406 78 57 30
-3.20544 0.499354 12.2467 0.572335 0.231959 -0.786529 82 60 30
-1.83758 1.10123 12.4756 -0.623485 -0.652428 -0.430818 116 95 58
-1.77525 1.09762 12.5797 -0.744895 -0.483476 -0.459764 118 97 60
-1.76655 1.12956 12.5794 -0.799845 -0.418951 -0.4298 119 99 61
-1.79016 1.04818 12.5763 -0.702734 -0.498498 -0.507607 115 94 58
-1.21468 1.27206 12.9207 -0.456079 -0.829922 -0.321281 167 143 94
-1.14259 1.31561 12.2531 -0.656643 -0.141324 -0.740842 147 125 83
-1.19546 1.30835 12.0062 -0.714288 0.090084 -0.69403 133 114 77
-0.985961 1.37435 11.6911 -0.520749 -0.823659 -0.224511 109 88 54
-0.991598 1.36823 11.7084 -0.525352 -0.820704 -0.224614 123 102 65
-0.918914 1.35873 11.59 -0.117236 -0.937412 -0.327894 87 67 37
-0.906787 1.42842 11.5111 -0.719954 -0.0859438 -0.68868 136 119 83
-0.979305 1.40218 11.1754 -0.841111 0.378554 -0.386302 141 125 89
-0.715202 1.43971 11.3069 -0.465862 -0.783384 -0.411438 138 119 73
-0.789251 1.46405 11.1288 0.0339595 -0.915535 -0.400802 79 64 31
-0.195324 1.683 11.4392 -0.252503 0.659507 -0.70802 45 35 17
0.444699 1.92079 11.1969 -0.738577 0.208739 -0.64104 109 96 79
0.772991 2.08891 11.1118 -0.709373 -0.303644 -0.636074 112 95 67
0.818315 2.11959 10.9861 -0.884926 0.0657302 -0.461069 51 39 21
0.889404 2.07194 10.953 -0.53199 0.339076 -0.775896 39 29 17
2.9695 2.85011 11.3574 -0.609227 0.663503 -0.434289 149 122 68
2.33019 2.65566 10.6985 -0.62922 -0.275079 -0.726921 117 86 35
-7.42186 -1.08483 10.9368 0.847195 0.0376658 -0.529945 194 149 75
-7.38792 -1.05191 10.9674 0.736815 0.0586249 -0.673548 190 144 68
-6.05552 -0.50986 13.0209 0.680112 0.0416493 -0.731924 169 128 50
-6.0569 -0.450055 13.0191 0.786843 0.0387448 -0.615936 169 129 50
-5.74311 -0.373231 13.4682 0.224706 0.300889 -0.926808 161 121 45
-5.60513 -0.333746 13.9436 0.556224 0.571386 -0.603433 156 119 42
-5.56476 -0.293114 13.9484 0.700299 0.111362 -0.70511 159 122 49
-3.23451 0.619448 12.0986 0.546544 0.272096 -0.791993 76 57 28
-3.19925 0.623395 12.3243 0.56968 0.23258 -0.788271 82 61 32
-3.218 0.569737 12.2038 0.565504 0.240129 -0.789014 82 61 31
-3.19824 0.621559 12.3252 0.569468 0.231734 -0.788673 82 61 32
-1.85703 1.19411 12.4132 -0.602257 -0.643477 -0.472465 118 97 59
-1.13204 1.45769 13.611 -0.896103 -0.374976 -0.237472 160 135 93
-1.13495 1.46572 13.2664 -0.656962 -0.688986 -0.306104 177 150 106
-1.21804 1.44006 12.0728 -0.825543 -0.490687 -0.278756 140 120 78
-1.21804 1.44006 12.0728 -0.825543 -0.490687 -0.278756 140 120 78
-1.15706 1.39926 11.9619 -0.920987 0.0378305 -0.387751 103 87 60
-1.10258 1.46429 11.8757 -0.931629 -0.222485 -0.287347 46 33 20
-1.0649 1.40627 11.7585 -0.874675 -0.445784 -0.190318 96 80 50
-1.10214 1.4662 11.6068 -0.943611 -0.262819 -0.201306 93 76 44
-1.02744 1.42282 11.5411 -0.495675 -0.716048 -0.49151 132 113 76
-0.877054 1.47065 11.3784 -0.850261 -0.196743 -0.48821 111 95 61
-1.14159 1.38762 10.8009 -0.821649 0.40361 -0.402482 50 38 14
-1.02668 1.49151 10.9828 -0.94103 0.107805 -0.320689 40 29 14
-1.02668 1.49151 10.9828 -0.94103 0.107805 -0.320689 40 29 14
-0.164395 1.78455 11.4761 -0.367964 -0.176499 -0.912935 34 25 12
-0.103218 1.80161 11.1355 -0.367283 -0.0811393 -0.926563 70 59 44
-0.0664927 1.78066 11.0295 -0.446604 0.312825 -0.838263 66 55 40
0.893715 2.18269 10.9405 -0.72337 -0.464615 -0.510753 31 22 13
2.36084 2.74384 10.6057 -0.452815 0.634833 -0.626056 91 55 13
2.78695 2.89263 10.3663 0.0125425 -0.904425 -0.426449 100 56 16
5.96602 4.12095 8.63661 -0.408809 0.281004 -0.868281 127 78 12
-6.09625 -0.414144 12.9928 0.713365 -0.148565 -0.684864 174 133 54
-5.72141 -0.251685 13.5601 0.73414 0.11542 -0.669116 159 120 43
-5.56905 -0.225176 13.9465 0.724492 0.0483812 -0.687583 159 121 49
-5.54975 -0.140218 13.9656 0.638925 -0.163349 -0.751726 148 113 50
-3.18144 0.763597 12.7639 -0.399452 -0.808885 -0.431443 67 48 25
-1.95842 1.17499 12.3612 -0.592542 -0.712535 -0.375749 108 88 51
-1.93928 1.26559 12.2996 -0.524551 -0.758562 -0.386562 115 94 56
-1.95497 1.18113 12.3665 -0.562923 -0.731081 -0.385536 108 88 51
-1.92415 1.24684 12.3167 -0.540695 -0.731325 -0.415708 116 94 57
-1.23966 1.51745 12.9816 -0.698479 -0.630159 -0.339157 164 140 93
-1.11043 1.58771 12.2489 -0.945848 -0.018228 -0.324097 132 111 76
-1.08966 1.53307 12.2296 -0.959144 -0.164977 -0.22984 131 114 81
-1.08658 1.60092 12.0909 -0.956361 -0.193627 -0.21882 78 64 43
2.01324 2.79765 10.7164 -0.49994 0.590696 -0.633355 81 43 8
2.18984 2.78983 10.7546 -0.670901 0.243494 -0.70043 86 49 12
2.3037 2.83942 10.6802 -0.697345 0.205149 -0.686748 83 46 9
6.04509 4.27405 8.58143 -0.647871 0.144732 -0.747874 126 78 12
-7.63669 -1.05504 10.5693 0.834459 -0.0613678 -0.547642 196 148 72
-6.01662 -0.341741 13.0515 0.616107 0.64622 -0.450347 166 126 46
-6.03497 -0.290602 13.0855 0.58579 0.0974669 -0.804581 168 128 49
-5.8312 -0.219008 13.5229 0.349228 0.334519 -0.875292 168 126 47
-5.76482 -0.218991 13.5366 0.805628 0.000747398 -0.592421 161 121 43
-2.91551 0.919395 12.174 -0.852437 0.290851 -0.43446 80 63 39
-1.93027 1.35733 12.3051 -0.512102 -0.764892 -0.390758 116 95 57
-1.2554 1.57243 12.8915 -0.638613 -0.713123 -0.289187 164 140 91
-1.11058 1.61099 12.3641 -0.931898 -0.178857 -0.315557 145 125 85
-1.12652 1.66419 12.2169 -0.939403 -0.206959 -0.273297 136 117 80
-1.0964 1.67363 11.9831 -0.969083 -0.0445944 -0.242672 40 28 14
-0.177138 2.02212 11.5605 -0.766405 0.40903 -0.495295 61 49 26
-0.135749 2.03868 11.4529 -0.778173 0.389614 -0.492593 57 46 24
0.226526 2.1948 11.1164 0.172302 0.223395 -0.959378 67 59 43
0.871017 2.41251 10.913 -0.224301 -0.00366145 -0.974513 25 18 11
0.885084 2.37362 10.8736 -0.435536 -0.80622 -0.400398 20 15 11
1.75007 2.79844 10.7047 0.203238 -0.343083 -0.917054 92 48 13
2.40902 3.00793 10.892 -0.659034 0.444371 -0.606803 102 63 18
-7.62998 -1.02648 10.5897 0.852525 0.0552668 -0.519757 196 149 72
-7.637 -0.996619 10.5713 0.810007 -0.0206513 -0.586057 194 147 70
-6.10559 -0.296122 13.0029 0.66074 0.0463158 -0.749185 175 134 55
-6.13198 -0.250622 12.9375 0.597418 0.262833 -0.757635 175 133 55
-6.06969 -0.263758 13.0403 0.632924 0.046616 -0.77281 169 128 49
-1.16612 1.88832 13.9489 -0.772767 0.110692 -0.624963 118 97 59
-1.21483 1.79434 13.2714 -0.769895 -0.462458 -0.439767 167 143 98
