-12.3277230911 2.1132154186 -5.6308539972 48 38 23
-12.3110102937 2.1195614115 -5.6294589895 48 38 23
-12.2768478064 1.71868878493 -5.59455121111 44 36 22
-15.4366682876 1.37437964123 -10.2858975809 182 170 155
-15.3509823667 1.65481948093 -9.58868834468 158 144 123
-16.0432983389 5.09038332001 -8.33511408204 161 144 124
-16.5068238994 1.58433158311 -10.4576705949 43 35 22
-14.4035141544 0.493517118915 -8.59494195005 196 177 164
-12.3246449711 2.37468851159 -5.63402463562 50 38 20
-15.6974215224 1.99516011307 -11.8489390771 86 74 52
-14.2623122819 -0.104375637021 -8.8973568958 99 87 73
-13.6479317542 0.603829137045 -7.6494458117 29 21 13
-13.8595903314 0.413558199117 -8.08884683359 126 117 99
-16.5600558717 4.59715798544 -10.4101049146 159 148 129
-15.2329501667 2.35246067604 -8.84338950706 108 92 75
-1.98468325778 3.41461303314 5.85340815043 118 80 9
-15.5017923518 5.01772408707 -9.08234669114 114 99 75
-15.2182563501 0.822751683885 -10.2193914067 51 37 22
-14.4277673822 5.2042070528 -7.54647098578 89 77 58
-15.0936501819 0.43926500529 -10.232222448 94 85 65
-15.7817853189 2.06761574699 -10.6574599129 166 157 148
-15.3798996204 1.16369931731 -10.2962933943 182 172 157
-15.9954860557 2.27312511167 -10.0239890756 149 137 123
-15.5960684906 0.459871837743 -10.4777882583 116 102 83
-13.3654903941 1.77375005752 -7.66832222391 157 144 124
-16.2658045041 1.73895538981 -10.75454758 141 132 106
7.44134672663 3.60278810437 -1.70369954332 80 64 42
-13.9415753469 2.25483634266 -7.68948381468 125 114 94
-19.1122757495 -0.385159018862 -3.21011840176 156 140 127
-15.9884756543 2.38876852475 -10.0608984094 34 24 15
-14.7683520473 -0.530229460623 -9.04543316017 42 34 14
-7.00976539436 0.30344645006 13.3176160314 237 218 178
-12.3754787725 -0.00940662449736 -5.68530366239 25 19 9
-12.1278660517 2.7233230257 -4.81681129611 137 122 91
-13.9310242974 -0.341219328742 -7.66077921993 176 165 146
-14.8250745689 0.0110532729942 -9.2060363689 34 33 17
-13.4887092068 1.14620267299 -7.16716894083 127 115 100
-13.8632653187 2.52986658113 -8.59275250657 160 135 101
-12.565293008 1.24084476448 -6.99426494468 126 116 101
-14.7420311017 1.24403887425 -9.32826729095 157 150 137
-16.1309897087 1.94230023337 -10.9341183736 97 80 72
-12.918691693 0.343716272347 -6.53680097093 59 53 40
-15.5501913272 2.07238397126 -10.1319830732 172 159 146
-13.9450676402 1.41126909643 -7.99850356625 196 182 161
-14.5532410717 5.65441003772 -6.81667210602 81 74 56
-14.3230062018 4.09508128483 -6.60058029208 53 49 39
-14.7138748429 1.92319100451 -8.74697212556 38 28 19
-14.1691206968 0.84412385825 -8.34636291572 162 153 137
-21.5128329584 1.72616613523 -4.97553528492 168 152 137
-13.9451194684 0.886229882972 -8.02236820969 40 31 14
-9.19324016571 0.784417450428 6.4431552887 230 218 180
-16.7018902084 1.59612762455 -10.8185044071 118 103 80
-12.9674777243 4.39685756057 -5.84449287115 88 79 45
-15.484574421 5.02952470206 -8.91235334423 81 71 59
-14.4523931369 1.7222699225 -8.82422685603 170 157 134
-14.1520228516 1.43964164968 -8.35441362091 163 151 127
-14.2078520256 0.43647002634 -9.03390520859 61 39 6
-13.3295382231 -0.24327132615 -7.23855988961 46 40 24
-19.5455537735 1.70345216613 -2.82928362655 134 118 100
-14.2536324227 0.855355833317 -8.52549357822 147 140 125
-16.2989077128 2.6311397681 -10.197156561 168 155 140
-15.3424868939 2.02402846761 -9.40390572389 54 45 33
-13.8187838885 2.26098159121 -7.67282271294 58 49 37
-12.2221642934 1.99083122091 -5.4445521234 148 141 127
-11.5969415311 0.43024699678 -4.74061639901 24 20 12
-14.8912387858 2.10386821525 -9.13730273816 133 123 114
-14.3934612203 1.47503703817 -9.0136412194 118 109 98
2.2883290728 2.83906675996 3.08301317066 19 18 7
-15.7192976656 0.975380164091 -10.8126920395 109 98 84
-11.3552671807 -1.72915443473 -3.95575496282 57 32 19
-12.7812505045 -0.00367871893646 -6.606720276 135 121 94
-13.9425408448 2.52828651541 -8.13282913818 204 186 163
-3.3525970792 4.22729258267 5.48473562731 105 103 25
-12.915167986 1.05331915444 -6.44929822274 76 65 46
-14.6832430905 5.31784006102 -7.82818535316 149 140 119
-16.541129074 4.76453631359 -10.5836499623 117 104 85
-16.5065259676 4.55642891813 -10.2690741609 164 153 132
-16.62569011 2.08479222226 -11.1690237019 67 62 53
5.14395539685 2.15671425853 9.16672956596 41 25 16
-12.8535773741 -0.27638864758 -6.98081452011 38 35 23
-13.8935798538 0.240164126144 -8.0238178402 34 27 10
-12.8345420015 1.42689379433 -6.3338119508 22 14 7
-12.8501349655 1.41373055317 -6.33368147722 22 14 7
-15.3977530369 5.66027569955 -9.42286574085 142 127 93
-15.7538143398 5.09872614637 -9.26706617853 95 86 63
-12.2135623589 -1.34999134966 -5.737785491 57 52 37
-13.7901381853 1.92454559231 -8.21804225035 51 45 27
-14.4369939491 5.42153550454 -7.63399338911 48 41 20
-16.7583669353 5.11755416629 -10.153217776 164 148 132
-14.7491853907 4.949260461 -7.94876318865 127 112 92
-15.9432659893 1.38950337517 -11.037441161 38 31 14
-2.31914663315 -0.0719863325357 12.6347732544 80 76 28
-14.8198036909 5.3855728608 -7.44906085971 96 79 59
-16.5731355726 4.66806865742 -10.3519049428 172 159 143
-11.8014841594 2.71121465009 -4.92584979939 135 119 89
-14.1289859491 -0.132327443368 -9.12472981397 28 29 24
-16.7076319209 1.86832002558 -12.3368943986 50 42 32
-11.3165395209 1.12654732692 -4.27287239612 72 64 45
-11.3422951893 1.27351015409 -4.13915130712 54 45 30
-12.7455042394 -0.730174573957 -7.09438719252 45 38 30
-11.433918421 -1.82903910191 -3.95296147727 57 27 18
-16.0366476438 2.23598824686 -10.9704927062 29 18 13
-13.7310128043 0.135720881607 -7.64340516537 27 26 19
-15.712175458 0.963354244291 -10.6604022916 165 156 142
-12.1856378476 -0.995303826278 -5.65623525936 23 20 12
-12.7258766277 0.886263785043 -6.34859420038 44 44 29
4.31415473108 5.65167632631 4.55945244898 114 90 28
-16.1464793431 2.00519921901 -11.4073837921 166 148 135
-11.9231264515 2.33853258502 -4.87951764815 34 25 13
-2.97336831496 5.4518503546 6.21022401688 226 195 130
-11.4966283452 2.32763226551 -3.90146688907 124 109 83
-13.6455174432 0.86848472242 -7.64996065603 29 28 12
-13.2089318927 1.527216898 -6.85794312685 26 23 16
-16.5807240721 4.71862330866 -10.6832429515 147 135 111
-14.4448805922 0.76374097485 -8.80804923772 28 22 12
-11.9953532442 3.0454660805 -3.34534750951 154 139 113
-14.5419075808 4.6429352647 -7.6114865994 103 88 68
-12.8918733441 -0.0964232242487 -6.40667291806 19 20 10
-15.4048078929 2.5290618995 -9.03464066739 136 123 112
-12.7771297237 -0.976716526307 -6.43896618463 24 18 10
-13.3718704175 0.279609189818 -7.18457613604 132 123 109
-14.8051094126 2.17156003546 -9.05936128985 56 42 39
-13.8673629842 -0.431646842811 -7.97427797157 32 25 18
-14.2937472767 0.83336946247 -9.00877202579 30 22 15
-15.3781628284 5.06350310321 -8.81810538994 96 86 60
-4.03236680744 3.85724484569 4.60456265581 213 214 117
-16.1353912927 1.72949610978 -11.4998098666 155 147 132
-11.7868277466 -0.637480848406 -4.95900838573 61 55 40
-15.0542507078 0.310327374562 -9.50155468922 36 19 17
-15.174394033 5.48196036698 -8.84473897067 153 138 107
-19.0492588637 -0.41115591118 -3.21617132828 156 140 127
-14.4976348531 5.52056841572 -6.65003617532 53 45 31
-11.5918239163 -1.35726283306 -4.82322020439 23 20 13
-14.5227108521 4.46209298297 -7.66381427312 99 92 68
-17.5494566442 1.23879576719 -13.7953493884 25 25 22
-15.4726390412 4.62792996132 -9.02892989642 81 70 48
-15.7502778061 2.19991215655 -10.5919755192 158 141 133
-15.201575718 5.67222364849 -8.56376862872 155 137 121
-15.9896748861 1.27735531668 -11.3818737394 24 21 14
4.43473951554 5.60274252471 4.16505262099 135 113 48
-14.8156515228 5.62082446738 -6.97537688587 172 156 131
-16.1725714996 0.876086749502 -10.8532470529 115 107 97
-15.5519674021 4.64885101521 -8.89754927055 155 140 120
-0.924069121191 2.83895741196 11.8788291757 120 102 68
-13.3645582982 2.10698370898 -7.21016256692 44 35 23
-13.4201066058 2.08466024991 -7.21229397518 44 35 23
-17.7757515353 0.592651554371 -13.8452136466 160 146 127
-12.0434236703 1.66212701188 -5.49722802509 42 35 29
-14.2569905273 0.813573141891 -8.51661966158 22 19 14
-14.2763374527 0.328181758173 -9.08157105611 27 23 15
-14.4679162184 2.42739126093 -8.51483741309 108 91 69
-15.9138215199 1.1272325678 -10.9760787453 15 16 12
-16.5747101498 2.45080419464 -10.940773301 24 25 15
-19.2090480806 0.401482640422 -3.15751561201 107 91 74
-12.8784769747 -0.352019962148 -6.51645999767 92 85 72
-12.0642218274 -1.18195869981 -2.66760012572 252 255 200
-8.58342051148 -1.92830496852 1.79129693379 254 254 209
-15.7150970383 4.99360368147 -9.19910482478 131 119 89
-17.9350832893 1.60417228447 -14.0542027089 214 199 161
-15.4794092815 0.834693033029 -9.98400758412 110 99 92
-16.0726994602 2.18210676744 -11.1742076263 93 73 62
-15.5862822721 2.21165944167 -10.620331 117 105 88
-11.868007636 -0.779513301471 -4.77762752925 117 105 81
-12.6340583097 1.34466176018 -5.98528112756 137 131 115
-13.9538664497 2.34180805404 -8.09092183834 105 91 77
-14.6635749043 5.54904752563 -7.88832651466 71 55 39
-13.8248289815 0.818064159404 -8.15390415639 62 51 41
-14.7077630166 2.28585476177 -9.50502303231 123 116 110
-15.495434561 5.20707208427 -8.88304399025 118 98 66
-14.393472796 1.63990168106 -8.60213321332 145 140 121
1.9019542843 2.86382153295 4.76569198858 130 89 17
-13.9449068922 -0.48251574885 -8.00967072412 35 25 14
-14.5095200923 5.64286824883 -7.48145286808 108 95 68
-14.7422209616 5.63209619145 -7.4060989854 143 128 104
-13.9712765135 1.33144153826 -8.00776532195 37 27 14
-13.4485037352 5.3095353062 -5.23496242018 174 151 119
-11.8751368346 -1.03841591649 -4.8524805999 58 51 40
-16.1954290284 2.05832791053 -11.2924010816 134 122 116
-13.3299191883 1.49837334731 -7.03074566471 148 139 134
-13.2317428823 0.0509690476139 -6.88163730242 35 27 16
-13.2083563282 0.0497559673861 -6.87847289647 35 27 16
-11.8751953246 2.35949342227 -4.8849964683 40 28 12
-12.5441164744 2.48275803613 -6.03403032954 128 115 90
-11.3470851269 -1.65229661851 -4.06980036608 95 82 62
-3.76769864835 5.27825565186 3.68230725334 90 76 28
-15.1998909635 2.48488784863 -8.85234513956 148 136 111
-14.8500188242 5.242988471 -8.03603195647 161 146 121
-14.6729318896 2.27038271622 -8.90003146199 79 27 17
-13.6737923376 2.21922149213 -7.55523544759 152 141 115
-13.4123785771 2.35600677724 -7.22214174783 43 34 18
-13.361469727 2.37910371547 -7.21581578481 43 34 18
-2.72042685688 5.22307645547 3.49411661169 69 55 20
-12.8116419706 1.8491459003 -6.40520192063 32 26 11
-15.8655938572 4.87006453513 -9.38744266662 80 75 57
-12.1485906926 1.11704470992 -6.02983461099 52 45 25
-15.7838528295 5.14815854136 -9.58179113216 144 131 108
-12.8693256685 1.89131963821 -6.69556995487 50 42 27
-14.0291192031 5.24663889731 -6.0694574775 99 76 49
-14.2191328061 1.38884358927 -8.52636874763 25 16 8
-15.0094260339 5.10031525834 -8.31357795949 116 105 78
-15.5278356915 2.27714772285 -10.7783725806 44 31 25
-13.1603264977 0.589173568048 -6.88020102056 32 25 11
-12.4578405144 -1.20274936003 -5.81647737153 64 54 38
-13.4775154655 0.984796475196 -7.47746018786 44 40 25
-14.5483303256 5.30259517048 -7.73393294822 145 134 110
-12.1174276606 -1.16696895282 -5.59340203089 29 27 17
-15.6311811975 1.05878474811 -10.6877778331 31 25 20
7.83937474679 2.66191083727 6.91438462326 31 30 26
-12.0387800507 2.61873394109 -4.78178303458 137 123 89
8.91062927246 -0.281742036343 9.74427127838 239 253 89
-14.603849718 4.82022398107 -7.74196207367 126 109 83
9.07493551446 0.699952007211 8.77463569997 237 223 99
-14.1601884611 -0.513115972363 -8.33157547598 142 139 126
3.38963157825 4.22587632786 5.70891461508 155 134 77
-16.1698552369 2.65748079723 -10.1922149324 95 86 77
-13.728683622 2.33439151104 -8.37047550653 35 26 19
-11.8361524958 -0.605971797329 -4.77575339898 46 42 30
-11.8491940767 1.69179605859 -5.4443887802 51 44 33
-15.7246300776 2.32528321358 -9.8374209217 147 131 106
-19.1210904941 -0.492426199565 -3.22392143695 85 72 57
-12.4739749805 5.57066844809 -3.27101689135 47 48 40
-15.8186493238 1.1155234533 -11.059900921 15 19 13
-12.0540685778 2.54597911194 -3.62889664197 109 97 71
3.42347354134 4.18012671686 5.61546444536 79 72 16
-6.8868803978 5.07131671906 10.5537557602 177 139 69
-13.6589977456 -0.518985325887 -7.7396555282 124 123 106
-16.0906785971 2.15825391347 -11.1420918276 74 56 37
-13.9579494572 -0.258394093555 -8.35477501498 153 145 134
-14.4332429801 1.42048333243 -8.7329172824 161 154 137
7.77876335806 2.60310204339 6.94927912679 28 27 22
9.70861434702 2.97048074067 -0.04268045154 73 59 15
-12.5300569394 1.06237925368 -6.77042541856 71 61 53
-11.8626925244 1.89807448954 -4.7804608949 39 30 27
-12.9423800386 1.47637676778 -6.41496771815 134 124 110
-19.3853042386 0.64019067805 -2.95935186628 34 24 16
-13.3003286367 4.9643252653 -8.96680682864 65 54 43
-11.6324171011 2.33739359845 -4.52231023533 40 33 17
-14.3964864515 2.00124459706 -9.14870621475 22 17 14
-12.1487295704 2.32980271396 -5.28572895993 45 36 19
-15.1242937001 5.62806595228 -8.97656947825 124 109 82
-11.8791147078 2.10461364151 -4.86742208166 41 30 18
-9.36708545685 1.88265860081 8.12243556976 68 53 37
-11.862380452 2.11115263931 -4.85992470083 41 30 18
-12.3844651681 2.16352851977 -5.90475352118 49 39 23
-11.7535835058 0.997219138153 -4.83319678553 39 30 26
-13.1473294876 1.44038632448 -6.86844374138 32 27 24
-13.150256367 2.2853952292 -7.01031087266 182 166 136
-13.1368778404 2.28846844616 -7.00798986563 182 166 136
-12.8159380665 0.957953311804 -6.40574740231 47 41 26
-13.5533762639 0.173141612265 -6.96482549585 27 26 24
-3.32656631063 5.30154674263 4.58901467434 142 123 57
-13.0113218064 2.37955586738 -6.66817545837 50 38 22
-12.378984862 -0.0873507725372 -5.62607905223 29 25 14
-14.6545735491 2.29779046971 -9.01404947616 108 69 67
-15.6492904777 1.02478430692 -10.5642911389 61 57 44
-16.1916445181 4.65948836922 -10.1554207962 128 116 97
-15.6303941827 0.756047709216 -10.5713704608 79 71 65
-14.6576038184 5.60543947157 -7.39495785595 94 82 56
-11.3259030886 -0.885522684254 -4.21686247873 51 42 25
-15.8336738436 4.62853825655 -9.22989821246 134 118 98
-15.2412299813 4.66451617071 -8.64646717446 110 97 80
-16.4441297473 1.73911681988 -1.13967513662 149 133 92
-15.7772576833 5.65571518581 -9.71415537527 141 128 109
-15.873226575 5.08349627074 -9.43175680746 120 104 83
-15.6124664954 4.89077675556 -9.2281292507 159 142 122
-16.7174833147 2.39800634017 -10.5059578799 14 14 12
-11.8545820815 -1.11627688561 -4.89916463882 11 7 0
-11.9155237998 2.80390403028 -2.7556265415 163 145 108
-15.2788139949 2.19931564806 -9.89785857678 89 81 67
-12.140166019 2.56069001627 -4.09749671541 79 63 47
-13.0511102425 1.7831857146 -6.92229697776 33 32 22
-16.1352900241 4.98363748318 -10.3399370392 121 107 79
7.68493352737 5.9595207194 3.35606073342 190 165 112
-15.4121876419 0.632310746821 -10.1768108194 30 24 23
-16.3749232694 4.87315314209 -10.4764946943 148 133 114
-15.1132578284 4.91021050263 -10.8569320128 61 51 40
-15.1761630178 0.672026435114 -9.82361171155 25 21 17
-14.1556086813 1.40297078336 -8.34970992944 96 82 66
-11.8878391132 2.63116008216 -4.02832547296 162 146 123
-13.9076788913 -0.176143432164 -7.92846430675 32 30 18
-14.5326246381 4.78504692061 -10.5215764521 41 32 21
-15.8749862825 5.46107868767 -10.3839675588 56 44 30
-14.8558893741 1.57683099991 -9.53493844844 89 76 60
-14.5590235129 2.08027605501 -8.79038634642 25 19 13
-15.3866431545 2.40345767468 -9.71922035468 136 120 96
-15.0512764992 4.63753261842 -11.099997064 42 30 18
-15.4331840483 1.97651337655 -10.1799457883 28 20 21
-15.1751330267 0.484612967096 -10.8474991772 43 33 23
-14.4254693521 3.76288091091 -6.91970657999 15 14 10
-15.8108368212 0.591093158268 -10.7644674651 35 28 20
-13.4204541316 0.713046182537 -7.46362806677 30 27 19
-15.4351564392 -0.507040383688 -9.57965322268 176 161 142
-14.5549931564 4.04795770631 -7.18278824253 22 21 15
-12.9059120506 -0.372258047441 -6.40094873353 17 18 10
-15.3641582754 2.03667067886 -9.59193825836 131 119 92
-15.8492404915 2.4304136756 -10.2023762364 18 10 8
-15.1906498222 0.45412174834 -9.4081153605 15 9 7
-13.8177990412 5.45042764316 -6.0661581193 77 61 35
-13.3962340326 0.00204210877919 -7.317062483 113 105 86
-13.4236674681 1.68926597064 -7.28658880787 102 91 80
-13.5012238594 0.979803717999 -7.47517494052 34 30 22
-12.3247196654 -0.359953103361 -5.59590052832 20 17 11
-16.1085300578 2.67751679029 -9.61936655754 129 117 98
7.61805625084 6.46452641361 1.97738575028 193 163 99
-12.7978498007 0.2598065607 -6.55127130106 98 94 79
-14.3231050339 5.61214852675 -6.48984846627 154 138 115
-14.3998121274 4.59824901842 -10.0648654893 42 29 21
-14.9362493086 4.84210040776 -8.12143478083 115 103 75
-11.2651191935 -1.73009147833 -2.42042125026 142 125 77
-13.1982614115 1.74870109337 -6.85230273357 25 21 13
-13.2283397345 1.74611511398 -6.85008318262 25 21 13
-15.5472016152 2.45711716666 -9.12661336669 28 19 10
-15.1728599288 0.0777257664369 -9.4211386691 21 13 11
-15.1687643608 1.5882046371 -9.46722286805 47 36 17
-13.0094646281 2.37332965649 -6.66645559576 42 29 20
-15.650154612 2.52749547628 -8.40557789939 20 22 12
-15.6415644418 2.53304344408 -8.40998497134 20 22 12
-14.1122253145 4.89362961948 -6.38376497582 75 61 41
-12.5528614489 1.32952811107 -6.72858542266 68 50 35
-14.7748806779 2.85435412797 -7.34885547188 71 57 40
-15.4637828062 4.81788931494 -10.649615858 10 7 0
-12.9088035062 -0.217644387986 -6.46941542936 42 35 19
-12.4111959998 2.14624343541 -5.73117634942 120 111 86
-15.769141773 2.3649252718 -9.92680318943 34 22 18
7.93362140656 -0.132831826806 11.7509374619 240 159 63
-12.4302747926 1.25466171064 -5.89326295165 42 35 22
-15.4254120426 1.93551092688 -10.232328261 20 11 5
-15.0910096866 4.53255544163 -11.0445567638 33 21 7
-13.4685681269 4.88935670299 -9.04589278294 62 52 42
-15.2163602047 2.4164353417 -8.88533239289 69 58 44
-12.3685114738 2.42340633003 -5.89911710877 39 27 13
-16.5326149527 4.80914020385 -10.4933837838 169 153 138
-14.0574740132 2.47526572866 -8.11353326254 204 186 163
-11.4972092114 -1.3642203923 -4.94651252251 53 51 38
-15.5142142819 1.91494749477 -10.6279939332 104 90 76
-15.867624617 1.1492127539 -10.8902993827 165 155 145
-15.867624617 1.1492127539 -10.8902993827 165 155 145
-14.6039747069 5.50395270027 -7.75232197807 57 43 30
-14.3084296545 2.13498274058 -8.89627180715 25 17 11
-11.1678843612 -1.69227395313 -4.03774800793 91 75 60
-15.7183271749 5.0664186436 -9.44188810363 91 83 70
-16.0754124499 2.58026595554 -9.50345111624 81 69 55
-16.0398524206 2.60691446082 -9.52981631 81 69 55
-2.6816313939 5.38174000395 3.25731322976 76 56 16
-11.9248437146 2.40409871213 -5.12960547514 40 30 15
-12.1657998446 2.29359985728 -5.30384335092 26 23 9
-15.8710912645 2.03570033246 -10.6770858172 138 126 117
-16.2430270919 2.27388306055 -10.6546323012 122 111 95
-16.5738897923 4.66789903474 -10.3481234677 167 151 136
-14.8949811308 4.6402108358 -8.03553220252 100 85 66
-15.6339897364 1.64611118133 -10.6630405357 24 24 17
-14.8405170172 2.29619732104 -9.10252325092 55 46 37
-16.4397145518 2.29933677321 -10.7620930122 77 66 49
-16.8025798156 2.59894811996 -10.4917405307 122 112 95
-15.0958904427 5.62327027571 -8.75267901235 80 68 48
-13.9026938727 2.59497083753 -8.14096520315 115 101 76
-15.7661724265 4.72042467977 -10.5335010917 35 35 23
-15.7366026061 2.53667198944 -9.81675399892 126 115 99
-15.5883952933 2.57745888844 -8.27147180281 99 89 76
-13.8535138999 -0.0555921208609 -8.08015959886 109 102 87
-13.7447256098 1.42014750786 -7.75943475267 164 156 147
-13.7507102306 1.41911610551 -7.75774069941 164 156 147
4.81277744593 5.36708791109 -1.18776337761 115 92 39
-15.6275808312 0.548297412016 -10.5406768993 162 154 138
-14.4732399144 0.777662818533 -8.79989941991 35 23 14
-12.3775758382 4.54221082961 -5.51912511884 24 18 7
-16.5437669822 4.77585236854 -10.3404254803 108 92 77
-15.3661454419 4.7458095552 -9.89727303869 33 29 17
9.50167655903 2.26728587993 7.7979414837 154 112 61
-14.3343312718 1.11098652766 -8.56766007232 187 174 162
-15.4844450767 1.13726159601 -10.2233367024 159 155 145
-12.3555423157 0.458882662413 -5.72733374776 96 88 70
-14.98143416 0.847186096037 -9.44507471708 192 185 172
-15.7502963237 1.95972286856 -10.5596344592 199 185 175
-14.9155666923 4.59074609884 -8.79164264817 39 29 16
-14.7452943969 5.71548912568 -8.20744184252 95 79 63
-14.2567566364 2.46120236849 -8.70742323929 55 41 30
-12.0730895002 1.7786830878 -3.03353919351 172 151 129
-14.5048206499 1.9712608376 -8.82202615256 149 139 125
-14.977218297 4.60288476932 -8.74943034296 47 37 25
-14.9003376131 4.60394037432 -8.73532452682 82 73 61
-14.7917531276 5.45470834031 -6.90662670156 78 69 52
6.42237043381 3.31087446213 8.50788497925 22 11 2
-14.4514830827 0.0183033211039 -8.84106570079 166 159 141
-15.308463064 0.0110358514914 -9.49210395643 137 123 96
-15.796372569 4.69489695739 -9.30573571488 133 118 86
-15.8031171131 4.69575216462 -9.20002371693 165 148 126
-16.1487533574 4.72554201363 -10.1205882225 87 74 60
-15.4208166636 5.47415401992 -9.12877085177 101 84 53
-12.3201888466 -0.7086258365 -5.66758878705 14 10 4
-12.6176262976 4.31215172703 -5.64345652627 132 118 95
-14.8038292534 1.46850181379 -9.51263032729 91 80 77
-15.5418324459 2.39329866653 -9.20739904666 140 124 111
-14.7019914951 0.864049162534 -9.12952294522 152 141 129
-15.325731654 1.28663389453 -9.57305498921 182 168 141
-14.1297792365 1.94170427475 -8.43478940248 107 94 82
-14.1861058787 1.92041478548 -8.40627092243 107 94 82
-14.4628136145 0.155524757848 -8.83590925358 155 143 129
-14.5162636697 4.76771515959 -9.98716551776 44 34 22
-17.416279922 2.56201614094 -12.0975725648 28 27 26
-13.7223321795 -0.341575258304 -7.61779013987 49 42 32
-12.9066195414 -0.0437847439161 -6.5167879653 117 109 91
-13.4803798072 2.52780727405 -7.79078571431 53 39 26
3.34479212761 2.77188777924 10.2825031281 105 70 29
-13.0734727522 0.620657657465 -6.6787928298 62 51 22
-15.026494161 1.18066100682 -9.56014523109 68 56 38
-13.9811719669 0.789111016184 -8.01597617281 66 54 31
-15.7867706197 2.53899365633 -9.38692725254 102 92 75
-13.0224447615 5.64725829449 -3.59623442078 176 158 131
-15.6778608257 0.906258966044 -10.6178513494 97 87 77
-15.4299352352 2.44482582601 -8.46335857643 30 24 15
-13.9759593639 4.90515853915 -6.42081719536 82 67 40
-11.9923622971 2.53657736615 -4.76887341176 106 91 67
-16.1939337308 1.96372318719 -11.5837453496 124 109 77
-12.7006238706 2.19431589725 -6.18171538043 33 25 17
-14.7302397143 5.24094821566 -7.87229071528 93 80 63
-13.4873403871 2.47034714242 -7.65141409519 104 90 76
-15.1077618075 5.34322605831 -8.71914785852 64 58 38
-13.3528891257 2.3090927987 -7.30702238366 143 132 111
-17.2456390424 5.91122837053 -3.35084188143 195 174 147
-15.7596821363 2.15673306325 -9.25611862233 46 34 25
-15.3829633492 5.23501219105 -8.82909891655 151 135 107
-13.877222313 -0.40466581523 -8.064333179 90 84 66
-13.3096450676 0.441999019031 -7.34013727232 91 85 67
-12.9883245902 4.51172773426 -5.6644869858 66 54 25
-12.9490872539 4.54760108241 -5.65190829121 66 54 25
-14.4046264728 0.695852820685 -8.82700569283 23 25 21
-15.1717009955 4.69396351212 -8.62989390321 69 55 34
-12.8046053865 1.90763336963 -6.46301734692 38 27 10
-13.6862385127 0.0298114746699 -7.72962075358 113 114 105
-13.6862385127 0.0298114746699 -7.72962075358 113 114 105
-14.934170368 2.51304401662 -8.3518789126 48 36 22
-13.6323513328 5.42425019247 -5.35281232565 129 105 77
-16.3960613793 4.93923540049 -10.2526166143 102 87 67
-11.3090849397 -1.59526019522 -5.35591917741 47 39 29
-12.1534010286 0.796150331034 -5.38553324307 101 98 84
-16.5429433912 4.63252380346 -10.32658848 120 104 89
-14.1948814264 2.45270311536 -8.77492412344 87 75 65
-15.0504786443 5.14011180716 -8.35030181994 88 74 48
-13.967779748 1.67021324125 -8.03458367617 69 60 48
-14.196123349 4.95403114975 -9.96890334708 51 40 26
-13.4042801522 5.01183180455 -5.18774655306 152 135 109
-16.1863105917 2.52180810599 -10.3962868604 85 84 80
-14.6132052945 5.64707200031 -7.98748363364 75 60 40
-14.9588384596 5.29940714179 -8.23946871162 138 124 98
-12.7427027221 5.11331285375 -3.31031745556 174 158 137
-14.9781022465 4.62495502584 -8.16443105955 125 111 85
-1.6280073833 4.66281448394 4.40947668463 213 188 119
-15.3757817971 5.37758133227 -8.7305276361 109 93 68
-19.2122153319 5.03374727336 -3.0253351004 110 83 46
-16.0249020548 2.58428353938 -9.76370693893 129 119 106
-15.6219873596 5.4164052391 -9.18496113336 140 125 97
-16.4140251412 2.38500675675 -10.8113739898 93 86 69
-14.147803824 0.849859256167 -8.3551845089 129 120 113
-16.6806831885 2.43075079307 -10.5515636908 24 23 19
-14.6634895535 5.24957817443 -7.80805320764 113 106 80
-14.6000136913 5.32391480504 -7.8327434229 113 106 80
-13.9065409387 0.448935123667 -8.06386209347 111 107 90
-15.8021996838 5.61785160648 -9.31652825071 180 163 143
-12.6702314597 0.966087546236 -6.71037588521 59 50 36
-12.6364651953 1.96275327062 -5.96859776016 137 131 116
-15.3978776605 2.20577140857 -10.267448268 150 143 132
-13.0675490641 0.695401400019 -6.78664366698 171 154 118
-16.3951432757 4.70879952576 -10.3981984445 157 146 126
-15.8788923171 1.92038258176 -10.9543577149 30 17 7
-14.4189419701 1.63810079094 -8.70369532526 142 129 110
-13.8432758242 2.42806819281 -8.21884601923 58 52 40
-15.248673953 0.0149939255237 -9.44436519151 160 148 120
-13.3646393739 2.28219508725 -7.22139725328 170 158 134
-14.3379261797 -0.418534397637 -8.37106157461 58 48 38
-16.6407643762 2.58154019827 -11.0697381683 133 122 105
-11.6453286313 -1.14436600071 -4.86009736155 11 7 0
-14.8866720689 0.140889812131 -9.4639752801 174 165 150
-16.3176260225 5.09897117579 -10.3454916718 95 80 60
-15.1321100118 2.19980088507 -10.4646036121 22 11 10
-15.0614838006 4.61036021348 -8.74149616812 89 78 60
-11.6891052928 -1.13301728656 -4.67185169692 18 13 6
-12.6334671648 1.1122333916 -6.81162145369 50 41 32
-15.5465081337 4.67509923281 -9.19198721193 70 58 40
-15.657416582 2.19727140946 -10.3610527412 190 175 163
-16.0473761722 2.58203093648 -9.43382475069 126 112 101
-16.5502543077 2.17711988908 -10.6947904574 88 77 59
-14.4248445328 1.71091775197 -8.72537543507 175 164 152
-12.9675774563 5.0488031243 -5.31761336274 130 109 79
-11.2456172286 2.47619006164 -4.32778861494 33 25 14
-13.6931185408 4.72619646394 -8.99689597082 63 54 44
-13.6090351655 4.78909256187 -9.02028134813 63 54 44
-14.5150534649 1.59193768252 -9.34759207718 119 110 103
-15.3324445311 1.60891642055 -9.52775687325 107 92 70
-14.1936204704 1.47694634727 -8.44149418163 24 18 12
-15.1746286596 4.89557384526 -8.69390314546 114 102 83
-16.6110778299 4.67733000636 -10.5357069256 163 150 134
-14.4702529027 1.11447267771 -8.81230506992 154 139 130
-15.2717831125 0.706948067 -9.53803873161 132 117 90
-15.747509099 4.65892138844 -9.12210400251 110 98 81
-14.4740757413 1.20609407658 -8.81479467866 31 25 15
-13.5725111967 2.35869852724 -7.66577933463 37 30 20
-13.4240553201 5.03198616459 -5.4819301711 198 175 129
4.01006563813 5.07012580335 4.9617013632 170 146 78
-13.1071264216 0.285338308717 -7.08336068462 139 133 119
-11.3712308251 -0.995716244456 -4.41421120438 74 66 48
-16.5082513884 4.72418249315 -10.4753025482 114 98 83
-15.6909250299 5.24171750541 -9.4606781618 100 91 75
-12.8865395055 0.548882067594 -6.64457741116 48 39 25
-13.3860898108 0.52336693426 -7.23606660572 32 24 9
-11.5801495262 2.25336196037 -3.72332394203 142 130 108
-14.5572797159 5.0682860541 -7.64123091017 99 86 72
-14.8587664462 5.51779742703 -5.50719590757 168 148 121
-15.3293268896 1.28534661042 -9.56523482638 182 168 141
-11.8774415679 -1.79518648378 -2.84824282112 173 160 117
-14.7311053451 4.70285083724 -8.02514950735 91 78 63
-9.38599300385 -0.455184876919 7.72498273849 159 139 96
-15.4370493779 1.24849026554 -9.52175499602 150 137 109
-15.2648809691 1.22213334479 -9.75278603278 28 17 20
-14.334587643 1.67739050802 -8.5615385114 121 111 101
-15.4703239202 2.12104844089 -9.34736480781 139 127 111
-15.588710385 0.693733757135 -10.6050923456 55 55 43
-15.5204304344 0.774402703623 -10.6192018884 29 20 11
-15.7524662429 2.55914969562 -9.47824869729 67 55 41
-15.2611357673 0.887714787504 -9.44936845972 143 136 114
-15.371346596 1.1374256043 -10.0678917849 158 150 141
-14.991278156 0.0157298377578 -9.51068842799 144 140 135
-16.6629794479 2.54846674562 -10.8141771855 141 139 124
-15.4462416253 0.53020851533 -10.1768535685 24 16 5
-15.4205498157 0.533114739182 -10.200270302 24 16 5
-13.1421484431 1.99307096768 -6.78049823784 146 135 122
-15.3609384377 0.525800753306 -10.1112601096 24 14 10
-14.4743258169 0.832965426386 -8.79454485409 152 143 128
-15.3475931757 1.79600962211 -9.69618870988 117 102 84
-15.6266362509 0.907629486313 -10.6156766818 94 88 81
-15.2648965868 2.50530768939 -8.9584154505 47 38 29
-18.4789636377 4.67180057956 -3.13135391498 139 123 98
-14.2640471431 1.11691608165 -8.52498347493 145 139 124
-15.4329155988 2.28093881684 -8.98168906467 122 114 100
-15.6458841772 2.33206727879 -9.14700061348 130 117 101
-14.9691646874 1.21248198933 -9.50369073208 138 129 118
-9.32855224609 0.566317975521 8.72898006439 208 192 146
8.11032877429 5.47382854659 3.04987154102 145 120 70
-15.3302542626 5.82024438814 -9.90648845017 142 128 109
-15.3860066323 1.10717196733 -10.2889519475 106 101 90
-19.1114145607 1.15530188524 -15.3044594454 107 94 87
-7.9432144165 4.20560264587 8.44772624969 121 78 16
-12.8398096184 -0.470400205421 -6.60853123844 78 70 49
-12.8885659183 0.852278492269 -7.01306739896 155 133 97
1.58706103266 3.12548802073 7.37232096819 154 107 25
-12.8353950813 1.43387045196 -6.43383077327 19 13 4
-14.4455037572 2.27103871491 -8.9199127664 89 69 59
-11.8667733327 1.56786230722 -4.50094342477 133 126 110
-14.1511682519 1.72373136085 -8.37495520896 182 170 160
-14.6812990942 2.2558758138 -8.9583001898 64 19 18
-16.5720882088 1.65146768794 -0.406906105852 155 137 96
-11.8854801641 1.3321695728 -4.95506131547 125 116 101
-3.80836345071 -0.49878082349 13.506863082 110 79 30
-15.1717371033 0.496736135105 -10.5275438804 125 110 90
-11.6359878725 2.67257149493 -3.94094954987 92 77 50
-15.8666225028 1.81686809873 -10.3961584778 144 129 107
-13.7799328638 0.0331794065661 -8.11516138426 105 97 84
-16.2021405956 5.36701552204 -10.3267166201 175 160 139
-13.9159188364 1.34647434166 -8.17272322718 37 29 22
-14.4541472528 5.77487161509 -7.6220105147 157 141 119
-15.1065730048 4.51590613725 -8.46657314828 70 59 42
-15.246881423 5.53613339001 -8.68025591056 145 132 115
-2.39643097092 4.55375396678 4.60908274607 175 153 79
-16.2151960447 4.78576267481 -10.2219234663 140 128 100
-16.7170216456 4.63876984808 -10.6337897781 126 114 96
-12.6963638054 1.1200445833 -6.85446982281 57 47 39
-2.37096935707 3.97834988488 4.68741321591 46 29 1
-15.5568247483 0.468748055223 -10.3471302529 115 100 77
-8.61854101208 5.15642321916 2.75016628294 68 51 26
-17.9547044648 2.78606707013 -13.1732288035 24 15 6
-19.0372980525 1.16978479869 -3.18968342832 142 126 110
-13.3098935628 2.44006042436 -7.30700577364 119 104 81
-15.1986166614 0.427057994761 -9.61200410083 163 148 126
-17.1290586065 3.02404914834 -1.64287104611 105 94 81
-12.5739842361 0.0854329662269 -6.07779390366 45 37 24
-16.7090207742 4.7549851039 -10.562426047 114 101 84
-16.6994858088 4.7802310582 -10.5788122297 114 101 84
-13.970185233 -0.319685524641 -8.01082000804 46 40 24
-15.4709782456 5.07101236132 -8.93105500535 81 71 59
-12.6890397153 1.48371172339 -6.07623279862 160 155 141
-16.61779633 4.82674351052 -10.4368967343 161 147 134
-15.7408975004 4.73140953883 -9.62447260658 42 32 17
-15.918293564 2.40247204416 -10.0284874242 40 33 22
-14.883966135 4.72594314312 -8.83992672452 81 69 53
-8.25543111819 -1.88244676379 2.65508934804 209 193 154
-0.874645357954 5.68784252666 6.61908542364 112 87 21
-1.40855329236 5.5317869645 6.25090865091 112 87 21
-16.774670667 4.75337792258 -11.1452072976 96 85 68
-14.1607853642 0.807577422525 -8.34136043539 44 40 33
-12.7170409277 1.25252393012 -6.45711537348 128 119 100
-14.6846852064 5.73875374441 -5.48264601837 175 151 123
-15.6786058985 4.68350981232 -9.01457970948 157 144 119
-13.3995330868 1.39664701155 -7.24931648972 46 34 21
-14.7066738158 5.61572694789 -7.42142335066 144 130 104
-2.99047626132 4.82401931403 3.60083759126 113 92 29
-15.9087191078 1.98813285786 -11.2629311591 117 105 75
-15.4148145447 4.77006987573 -11.6302817489 59 49 39
-15.1634658932 4.95646367769 -11.738194061 62 52 42
-16.0784625786 2.26016403094 -10.9395343771 24 19 10
-16.257075367 2.5806812006 -10.3248392138 13 11 5
-15.3444547549 1.09287746847 -9.71162628374 166 148 137
-16.0318100975 2.70144402651 -9.59885098135 132 119 102
-7.39745426178 -0.162644580007 10.8941984177 171 136 82
-15.5827623943 2.55421797087 -9.35819602879 75 62 46
-14.6785897977 2.25388118013 -8.72497373749 44 30 22
-15.178379964 5.8863760446 -7.08914178687 155 139 114
-15.4925290021 5.00929224389 -9.06634538897 119 107 84
-13.8708398119 2.47808393118 -8.31088263463 134 128 115
-16.1201263852 4.7146961094 -10.2428980692 59 47 34
-12.9858445911 2.26027339366 -6.92976090776 174 157 135
-15.9506811057 2.50590826032 -9.50557701304 41 32 26
-12.6560120485 2.15209530943 -6.14771920349 50 48 38
-12.3090428844 4.37217922337 -6.00638313687 63 48 27
-15.7292253271 2.21163788062 -10.6157288817 149 131 124
-12.2961432719 4.7117397536 -5.37771690024 16 18 16
-15.6129759911 2.13318463597 -10.7485327008 21 17 12
-13.8257516086 1.30177268916 -8.32007522085 18 20 14
-13.8257516086 1.30177268916 -8.32007522085 18 20 14
-12.8452664905 4.42169555456 -5.66801554082 164 141 106
-14.5693328823 1.56992922768 -9.0014128853 115 100 75
-12.4686284352 -0.0930433014228 -5.95088715022 29 26 17
-12.5579911174 0.179864582308 -6.40602569085 24 23 18
-13.7997758689 2.22402775343 -7.62973324579 28 17 13
-14.1796987504 1.40315263658 -8.33235576948 141 128 113
-12.3167292616 1.91192314454 -5.88696144612 37 27 15
-12.2541502725 1.93167476352 -5.89001491015 37 27 15
-12.9392118616 2.32379096745 -6.41463862799 29 30 12
-12.7365562151 1.25965381124 -7.03228106257 103 90 75
-15.4554422384 1.10082159322 -10.7067120978 35 26 16
-14.4217940911 1.14696437459 -8.95147734903 25 23 13
-15.7774148896 2.15075830324 -10.7358795804 36 26 16
-15.2914628966 2.14400011237 -9.40647852096 36 22 18
-15.5229590761 1.11802695934 -10.1943671009 155 152 139
-12.3631588913 2.16785190157 -5.90479254703 38 31 12
-11.7690087847 2.19094014211 -5.12314876508 33 27 11
-11.7979351943 2.17230194051 -5.12806139525 33 27 11
-16.3233571097 4.91227672455 -10.4373183022 101 86 63
-11.7584987299 0.0388336898792 -4.99933249366 73 65 54
-19.2151597539 0.57152724416 -3.10967851782 76 62 49
-14.3234300762 0.418709704879 -8.98166808935 41 20 7
-14.7033921816 4.7229872309 -7.93197690383 101 86 63
10.0562887192 0.663543760777 8.48393249512 171 159 53
-14.3983198665 1.51616217211 -8.98262857235 20 7 7
-15.5096047322 1.34914038651 -10.2130586578 159 151 141
-15.2138417852 0.768716934929 -10.0691477013 34 26 13
-15.2572364079 1.9734753833 -10.2463190742 22 10 2
-15.2635068999 1.86349300722 -9.95167418227 115 98 80
-15.0861065115 0.465131915172 -10.2871539645 69 57 41
-13.6302268669 1.4167218937 -7.55838337968 142 138 130
-13.6251040822 1.41743831133 -7.56072395548 142 138 130
-15.3394042067 1.14654636154 -10.2931157717 21 14 8
-15.7399384113 2.46032898427 -9.8371694426 116 101 97
-14.4870664969 2.43034236231 -8.64266659078 155 142 133
-15.673147502 2.14659208089 -10.6498879688 42 34 32
-14.5869520614 2.36939620261 -8.82742107339 170 144 138
-13.4681382527 0.284522457581 -7.30826992694 189 174 146
-15.2750668496 1.4283972006 -9.45385951577 119 114 91
-15.3734754637 1.36319681763 -10.0722639157 160 152 141
-14.481731965 1.05004283832 -8.8069058087 36 25 16
-16.4383673256 4.8511568702 -10.4807947068 165 149 132
-13.9389694738 4.93519274315 -6.33839012918 157 135 97
-15.4581498502 2.55027277487 -9.4600357353 103 89 76
-15.0067773739 4.6988921532 -8.59608141576 41 29 14
-14.4947906465 5.77789301869 -7.22850873891 106 97 86
-14.0627442198 0.460732273593 -8.51713476703 136 131 114
-13.9224124476 1.41635877082 -8.00580234334 165 153 143
-13.8640953137 0.530564891426 -8.04641675838 52 46 34
-13.9888494973 4.22850650074 -6.74882588053 26 19 12
-15.6996497802 5.09384249654 -9.15434820651 104 90 63
-15.9475250158 2.37962577826 -9.99239304569 31 25 16
-13.8803799442 0.794756190828 -8.04084266861 29 25 9
-14.0876359734 5.03224329632 -6.25809896642 168 145 110
-11.7169282387 5.87660264399 -5.94101113978 70 56 36
-15.8468164584 2.63775396952 -9.80932447979 112 102 93
-15.7661518793 1.90730337728 -10.5057279268 113 97 81
-13.3618521444 2.43403622816 -7.2680993805 43 35 24
-12.5129151511 4.36359304716 -5.63475439189 128 112 83
-15.5459333539 4.79998405481 -9.07652433692 115 102 88
-15.5459333539 4.79998405481 -9.07652433692 115 102 88
-12.5463048167 0.00308123493634 -5.69022795971 31 27 15
-14.6498317397 5.33053405138 -7.90908295977 94 76 64
-16.3625991069 4.94457141819 -10.3511785583 122 107 88
-15.394297017 2.07291744911 -9.52635643011 122 108 83
-14.4790583505 1.33987544962 -8.85651773995 60 52 46
-13.2708521992 1.88021297554 -7.66235444675 150 139 113
-15.0873552059 4.71227605272 -8.70138047065 91 79 63
-14.7574218497 4.77490246935 -7.93664496365 77 62 45
-14.1459513149 1.64373424277 -8.54805489157 63 54 45
-15.0013536361 2.28860756625 -9.37859579407 84 78 67
-11.5327043653 1.68439811649 -3.82531887472 127 115 89
10.2562379837 4.67822408676 3.26237845421 65 45 20
-12.905265719 -0.283150347931 -6.451519783 35 32 23
-15.4367526924 1.9236996326 -10.2733920534 115 106 96
-15.7947656862 4.58672117933 -9.19616555991 168 154 129
-8.07113919291 2.84204027662 8.35490545365 150 103 23
-16.1566493496 3.87949742469 -1.79850438198 78 66 37
1.56601931019 2.84069606448 6.46510311587 192 209 96
-15.749681699 2.38547268544 -10.1590438183 113 101 79
-14.9064487047 5.46342564631 -10.1836556124 32 23 17
-11.4308334769 6.76973843714 -1.49640059012 117 102 69
-11.7902912888 -1.29859978 -4.60295349822 25 22 15
-11.8096738175 1.65800238939 -4.5762166818 136 128 111
-17.1928169058 2.30936513595 -2.79347040171 49 46 60
-12.9758533779 0.280385061763 -7.4507155859 71 62 50
-15.6321574821 2.60784136484 -8.43513380437 121 114 102
-14.7255478218 -0.0461806865367 -9.1672012303 36 33 29
-13.6763467639 1.94698001116 -7.80765191523 144 119 79
-14.5126452267 5.79681124957 -5.69795309531 167 147 120
-14.6652363599 0.79414096672 -9.16753567221 34 22 18
-14.787269819 4.93211456669 -8.83796640991 60 49 33
-19.1998404426 0.293142190122 -3.51733861283 109 94 74
-12.796570017 0.804571877781 -6.45792686716 54 45 31
-15.1331421546 0.0865769702906 -9.49838096795 159 150 128
-15.0532912891 5.73085724451 -8.68074910098 142 130 111
-13.425554057 0.689331198245 -7.2227119349 78 64 43
-12.2917696372 0.297587629521 -5.75092664523 101 93 77
-14.4246103272 2.99580302881 -7.23887910876 64 51 35
-6.90360164506 5.13839902696 2.79945388615 227 200 118
-20.3713432678 5.50485457861 -4.44247627591 138 122 99
-13.5876402118 -0.240326093142 -7.73501865105 34 31 22
-13.3721413695 2.40738781774 -7.30179284866 86 79 60
-13.4203527029 0.302701075634 -7.27191686879 143 136 119
-12.2434771751 -0.188861567584 -5.85994010113 46 42 26
-12.1848765207 1.35346287294 -5.42453540347 163 149 131
-13.4182884829 -0.0443003719002 -7.23647750241 56 41 32
-4.96183820964 5.25023110031 2.31059850121 160 137 70
-2.69303554497 5.47906139862 5.05126927684 171 146 83
-15.3518921137 0.526670936904 -10.2518320536 37 28 10
-19.2396472439 -0.190222274715 -3.11352347941 159 143 128
-12.5565944931 1.14027712513 -6.82902068625 50 41 32
-15.3084309331 0.447729610297 -10.324754795 78 65 48
-2.97837424773 4.72405727044 4.86048234015 181 154 85
-15.3935989699 4.85216441089 -8.89547749697 125 112 82
-14.2279883541 4.84116153666 -10.0152190999 73 61 50
-11.5013477462 -0.552965864673 -4.64410036724 47 43 31
-11.6234814508 0.706226214383 -4.52565935099 52 46 31
-18.9907915 -0.257204371729 -3.3040643611 152 141 117
-12.6808515438 1.0560206014 -6.34690207484 145 135 113
-16.3609034499 3.02592056116 -0.677151856134 65 56 46
-13.4721442312 0.747600797929 -7.24468048948 185 167 135
-13.4381679963 0.545308183842 -7.33950443675 115 105 88
-16.1441358726 2.30654862993 -10.677982745 48 36 23
-13.0819410218 2.25183520571 -6.8809637168 201 188 153
-11.782486298 1.62154046062 -4.87861623552 79 69 41
-19.2605777636 0.62735675337 -3.07171766248 93 78 70
-19.4308770537 0.581671869257 -2.98091719367 68 56 42
-15.6874606967 2.50620618491 -9.39883980217 146 134 119
-19.4026428397 0.656206590836 -2.95011097261 153 140 126
-13.4240134575 1.28101435052 -7.4702396991 46 42 32
-12.9378074836 1.9654181384 -6.78794372551 97 84 72
-19.181759973 -0.185892990456 -3.24331044829 147 134 116
-12.6617401682 1.17384197133 -7.12065623664 46 40 37
-12.3870451185 -0.037894799769 -6.17576003161 30 25 19
-14.0380670184 -0.127738335847 -7.58837618338 50 46 34
-12.2704710494 1.89183461164 -5.71860326476 113 104 82
-13.3978483962 0.71294962264 -7.03490095333 97 59 33
-13.5740943695 1.80247065279 -7.81575725686 161 151 132
-15.1640126582 5.62072487775 -6.55539569807 142 126 100
-11.5888034638 2.23415850731 -3.88068118596 178 162 137
-14.6597307215 1.61612754544 -9.06242984938 111 97 74
-12.3954755457 2.24158554631 -3.5614981562 132 117 90
-12.6152185085 2.25659281255 -3.61576979197 138 124 96
-14.8781407434 2.62248744631 -8.32700301603 48 33 28
-12.8515277956 0.720100516752 -6.51029631098 141 129 110
-2.19932692821 5.21911739957 4.57196911533 53 37 7
-11.920931008 0.359601597298 -4.92208305724 30 24 15
-2.68372316062 5.31005148924 4.47912151568 132 110 51
-19.2986545104 0.606235176557 -3.0271279199 127 113 100
7.88759864036 5.33254870136 3.19458292644 207 180 127
-19.24278902 2.21023322811 -3.30587608236 134 116 102
5.91425042022 5.83036642469 8.73209098751 126 88 36
-11.6563161058 1.50075731638 -4.35629524082 115 108 88
-13.8479834688 1.22572554869 -8.06422543558 19 15 9
5.563123703 4.33194637299 9.21765899658 151 103 27
8.40256211414 -0.139531014759 11.9886282028 240 159 63
-11.7616236017 2.18076362432 -4.94098470432 112 103 86
12.5414304733 -0.450506836176 7.3040266037 233 243 100
-12.2581790127 -0.912402536467 -5.7375653746 70 64 49
-11.7099353562 -0.641174568838 -4.91455068814 54 47 38
7.90384643724 -0.603323331225 9.8337235165 254 253 119
-11.6455690145 2.24789801222 -4.6656701025 31 22 11
-17.6296967976 2.15986201539 -13.6925463656 39 34 25
-14.1464749737 4.04994667263 -7.27750969676 8 10 8
-7.85637742326 5.26205188563 1.84177605732 176 154 97
-13.3736091263 2.47501086193 -7.21819371177 145 131 109
-8.59806442261 2.27620482445 7.75211572647 85 58 30
-12.8830995332 1.72565482141 -6.51093016323 135 126 113
-11.3313155578 2.78192841766 -4.50963323054 131 116 93
-13.8938898481 0.144190541715 -7.9774779403 26 23 14
42.4436961254 9.41322607592 -11.9153170847 57 47 12
-13.4511562061 2.03157039398 -7.26127376093 59 38 21
-8.92580687191 5.43713938258 2.74787998769 96 86 70
10.5349601647 6.58113906541 -0.231930940081 157 139 78
-11.7288946283 2.55912283411 -5.00732873508 123 112 84
-12.3628065841 2.59808335085 -5.74571075919 136 120 95
-4.91394357262 5.25754216909 2.07256320906 144 124 56
-16.5680518794 3.24722767475 -1.28744627242 117 108 98
-13.5789793849 -0.0417952479345 -7.65752505423 28 25 20
-14.3475265645 2.30487523996 -9.53820577809 19 16 16
-15.4085335442 2.64005081246 -8.42585307093 20 14 10
-13.3978483962 0.71294962264 -7.03490095333 97 59 33
-14.1756064111 0.513235709243 -8.65267465564 190 170 157
-14.4335180327 1.00119480913 -8.86579074341 64 59 47
-13.7807855839 0.052262098254 -8.11965677523 105 97 84
-12.4004923239 1.01219003203 -5.67588481632 122 111 97
-13.3084666053 4.08601439086 -6.66305538796 62 51 31
-13.2423934487 0.445377660916 -7.43735475505 44 40 31
-15.4646891765 1.3498681275 -10.4769642716 140 127 105
-13.1864002183 1.94099304687 -6.74753097026 133 121 104
-13.2428609361 2.20567457846 -7.03037181617 155 142 113
5.54117859802 0.702225330089 11.5673684397 224 209 87
3.60799992803 3.2405692834 10.2553154737 137 95 34
-13.389924503 1.69647740885 -7.3025870821 153 137 112
9.05387207918 6.40764182181 -0.0926867057761 118 97 44
-12.4930156668 2.22363669499 -6.06332964635 91 84 73
-12.5599859649 2.19762993942 -6.07195692515 91 84 73
-11.6296633499 2.54647646934 -4.78486516664 66 56 42
-12.5056081063 1.06798168923 -6.75887723241 99 89 77
-13.9861866124 4.99352988468 -6.27365598626 184 161 122
-13.1713437341 1.08439261746 -7.43528794443 34 26 18
-13.1228148736 -0.00427002488712 -7.61305164768 77 64 51
-13.3399472381 0.674212584952 -6.92151846214 205 174 148
-12.1383636557 1.04678578934 -5.1443921927 96 87 72
-5.95312221171 2.45449809432 12.8272075992 83 58 34
-11.5789473391 -0.55244885281 -4.66396076151 44 36 28
-13.1887496864 0.812880101163 -7.43718581551 39 28 13
-11.5801828194 -1.43592037192 -4.87380574656 16 12 5
-10.9480182705 4.58486150833 2.25837056655 157 147 117
-11.9088839131 1.77894405793 -4.90145281959 30 23 8
-14.0682898461 3.92936093324 -6.37508302642 24 19 3
-12.5359333601 1.24299724673 -6.71269537587 59 45 37
-11.847644182 1.80083121509 -4.89547472926 30 23 8
-14.3897533491 2.11071989878 -9.2017801933 17 13 10
-13.6119057797 4.94294473447 -5.61108386624 190 162 123
-13.4286469371 0.707959984054 -7.24566405712 170 154 126
-8.216211862 5.31316975663 2.86271683902 203 181 142
-12.615934783 1.22601015392 -7.02348030388 149 137 127
-13.2838467546 -0.402046123969 -7.28192531336 98 87 69
-12.548643893 5.69373709619 -2.86204625464 244 238 201
-7.7779515302 5.62468660647 22.6008152621 113 74 15
-13.8132528935 0.85197974695 -7.81490611139 169 159 150
-12.413749814 0.830870263562 -5.68299759318 47 37 19
-13.9695995671 2.28919773856 -8.05710899129 75 61 47
-11.7322385448 1.70127504615 -4.04235617597 94 77 59
-11.7598869081 1.4689308584 -4.65701739237 124 114 103
-13.3307837825 -0.101217809841 -7.24245119718 47 38 27
-11.5985058021 0.345299598292 -4.5444691409 21 15 7
-13.9425844821 1.72092698014 -8.08496096643 137 125 104
-13.599530672 2.45645856687 -7.49497038773 108 93 72
-13.0037456407 0.158625704912 -6.41994624662 38 33 28
-13.6199071164 0.90589195726 -7.21463551287 54 48 44
-12.3078656857 -0.326696268321 -5.71768317289 79 72 59
-1.90304189083 5.4478759486 5.25725880227 128 104 41
-19.3811412078 0.329531417732 -3.5720541041 113 98 78
-13.1348688115 -0.0600586755948 -7.59421133632 82 68 57
-13.9695788376 0.608833959354 -8.07033080746 35 27 12
-13.4230135277 4.97553535495 -5.38481306214 203 179 137
5.66281032562 -1.32531177998 11.8825521469 254 240 113
-13.1786493834 2.01929544293 -6.95782748835 123 115 112
-13.1848792921 2.01478330912 -6.95728438588 123 115 112
-15.6527903871 2.25441360947 -9.32153532474 83 67 51
-11.575277689 -1.14428979513 -4.52150901994 28 22 10
-13.4700578899 1.03271960519 -7.22790619496 29 19 14
5.44094184797 0.469175015004 11.8870354468 141 119 43
-13.4034479949 1.75061983677 -7.25224836705 28 22 13
-13.9493999727 2.31354205575 -8.51815169865 29 22 11
-13.0422809852 0.700260997788 -6.97337992042 140 124 95
-11.5859212093 -1.08360329456 -4.52055702125 69 61 46
-12.558986935 5.29871314538 -2.96789856039 70 58 35
-13.933201881 2.13818926258 -8.03579475726 39 32 17
-14.4323452971 4.70522061796 -7.56112218091 68 54 34
-14.4643882538 1.8576161847 -8.88163481238 53 50 38
-11.4499439293 -1.87992074943 -2.7711913408 134 119 87
-13.4471931163 -0.430052117487 -7.19470714224 45 39 25
-13.138227235 1.54224518509 -6.86887612204 14 13 7
-12.9335903719 0.311302015643 -6.39613563868 211 197 174
-13.2322384548 1.30197118587 -6.9717750823 35 28 16
-12.4003177226 1.90607489498 -5.68212032249 100 86 59
5.1459495309 6.87677567991 -2.9568500873 172 144 86
-13.5302408844 1.94657416998 -7.41939154077 231 203 157
-13.9053341756 5.874543701 -4.44872251382 186 163 132
-12.369951743 1.33001118828 -5.6470606961 113 104 92
-12.352318496 2.59198610569 -3.51558584363 176 160 135
-15.3097686084 2.2762737309 -10.2108786237 185 172 164
-14.314872576 4.83012040887 -10.1215547866 78 64 51
-4.34834488419 3.79807711735 4.41615576034 205 210 110
-18.9956606734 0.611200998213 -3.24964018483 180 160 149
-12.3981003381 0.813514383884 -5.68422225264 58 45 26
