ply
format ascii 1.0
element vertex 723
property float x
property float y
property float z
property uchar diffuse_red
property uchar diffuse_green
property uchar diffuse_blue
end_header
-1.99395 -0.0371537 -0.14863 0 255 0
-0.716305 0.0244578 -0.950324 0 255 0
-2.70377 0.00110813 -0.111492 0 255 0
-3.5483 0.0201305 0.230518 0 255 0
-0.774372 -0.175206 -0.691794 0 255 0
-4.3636 -0.0493184 0.586743 0 255 0
-1.01066 -0.134955 -0.692539 0 255 0
-1.36228 -0.158326 -1.19923 0 255 0
-1.79027 -0.231231 -1.52701 0 255 0
-2.08783 -0.179064 -1.46138 0 255 0
-1.19536 -0.159642 -2.85516 0 255 0
-2.21616 -0.141412 -1.11654 0 255 0
-1.74983 -0.0743971 -2.27872 0 255 0
-2.2189 -0.160993 -0.228712 0 255 0
-2.04942 -0.114927 -0.637454 0 255 0
-1.83562 -0.139944 -1.02487 0 255 0
-2.51128 -0.167017 0.0804494 0 255 0
-1.49095 -0.17099 -1.21745 0 255 0
-2.41777 -0.138868 -0.90404 0 255 0
-2.3484 -0.129597 -1.82412 0 255 0
-2.72947 -0.15718 -1.30365 0 255 0
-2.79753 -0.121905 -0.98576 0 255 0
-2.88676 -0.0915623 -0.74257 0 255 0
-3.39715 -0.135127 -1.324 0 255 0
-2.89821 -0.177761 -0.128089 0 255 0
-0.953349 -0.154384 -1.43946 0 255 0
-2.92358 -0.155125 0.303251 0 255 0
-0.378339 -0.159274 -1.64039 0 255 0
-0.0771239 -0.158205 -1.79671 0 255 0
0.0178265 -0.176929 -1.90143 0 255 0
-3.00305 -0.219244 0.301585 0 255 0
-4.00168 -0.17615 -1.48648 0 255 0
-3.39023 -0.252667 0.472941 0 255 0
-3.39614 -0.242999 0.488894 0 255 0
-3.61984 -0.356794 0.460993 0 255 0
-3.64319 -0.399205 0.519267 0 255 0
0.178267 -0.192879 -1.85135 0 255 0
0.263638 -0.286064 -1.96006 0 255 0
0.421322 -0.434153 -2.30195 0 255 0
-3.57502 -0.354818 0.823817 0 255 0
-3.77865 -0.546968 0.899326 0 255 0
0.737639 -0.529249 -2.72321 0 255 0
-4.31857 -0.829269 0.952336 0 255 0
-4.56877 -0.126519 -1.35209 0 255 0
0.883014 -0.123886 -1.63682 0 255 0
1.16838 0.0282489 -1.50468 0 255 0
1.31535 -0.00636837 -1.422 0 255 0
2.06431 0.0611355 -2.97177 0 255 0
1.93118 0.0409165 -3.40995 0 255 0
1.69358 0.0417554 -4.015 0 255 0
1.4203 0.0503298 -4.55651 0 255 0
1.42457 -0.0131853 -4.87814 0 255 0
1.50749 -0.0365474 -4.88517 0 255 0
1.61267 -0.000552846 -4.66868 0 255 0
1.64692 0.0298994 -4.49099 0 255 0
1.55375 -0.0635507 -4.9304 0 255 0
2.62522 -0.0403517 -1.84689 0 255 0
2.68663 0.00368692 -1.78389 0 255 0
2.87317 0.0452706 -1.64595 0 255 0
2.68305 -0.0713738 -1.75003 0 255 0
3.00825 -0.115112 -1.53084 0 255 0
3.09801 -0.0687592 -1.47004 0 255 0
2.82472 -0.0694131 -1.22281 0 255 0
2.83552 -0.0802995 -1.62773 0 255 0
3.00411 -0.0657959 -1.48065 0 255 0
2.81287 -0.121931 -1.58798 0 255 0
2.68742 -0.188954 -1.69265 0 255 0
2.70853 -0.202359 -1.77566 0 255 0
2.94017 -0.203568 -1.70932 0 255 0
3.20989 -0.205673 -1.63641 0 255 0
2.19261 -0.119429 -1.33427 0 255 0
2.9225 0.05345 -1.5968 0 255 0
3.26445 0.0406456 -0.920794 0 255 0
2.72727 0.0493947 -1.77817 0 255 0
2.44567 0.00909062 -1.17964 0 255 0
2.66826 0.0474866 -0.844349 0 255 0
2.90114 0.0450602 -0.677595 0 255 0
3.10159 0.0641538 -0.758873 0 255 0
2.24693 -0.00219389 -1.60731 0 255 0
1.62498 -0.130506 -1.36684 0 255 0
3.32738 0.109988 -0.524274 0 255 0
3.65527 -0.263079 -1.70023 0 255 0
3.59685 -0.229955 -1.67182 0 255 0
3.75412 -0.229499 -1.64456 0 255 0
3.61379 -0.135036 -1.50967 0 255 0
3.58086 -0.0532391 -1.4991 0 255 0
3.85361 -0.426911 -1.6784 0 255 0
3.66943 0.0293956 -1.48496 0 255 0
3.33534 -0.0954536 -1.33034 0 255 0
3.1033 -0.14181 -1.24606 0 255 0
2.9474 -0.131594 -1.3322 0 255 0
2.86874 -0.0469029 -1.53122 0 255 0
3.63953 0.109499 -1.06025 0 255 0
3.3518 0.111218 -0.927281 0 255 0
2.18662 0.081308 -2.54618 0 255 0
2.3394 0.0544228 -2.11363 255 0 255
2.26086 0.0521786 -2.05962 255 0 255
3.82665 -0.320494 -1.57229 0 255 0
3.88108 -0.702073 -1.40985 0 255 0
3.93863 0.088289 -1.04587 255 0 255
3.87524 0.134079 -1.52574 0 255 0
3.40378 0.104889 -0.180891 255 0 255
2.27163 0.0898475 -1.96232 255 0 255
3.4073 -0.328477 -1.3045 0 255 0
4.29768 -0.493612 -1.3647 0 255 0
4.13167 -0.36258 -1.40327 0 255 0
4.47567 -0.481329 -1.27853 0 255 0
4.12014 -0.560186 -1.70353 0 255 0
2.95104 -0.81853 -2.74965 0 255 0
3.00768 -0.837936 -2.62261 0 255 0
3.13732 -0.787787 -2.70977 0 255 0
1.88622 -0.804751 -3.88817 0 255 0
1.46829 -0.879903 -3.98607 0 255 0
2.37507 -0.736362 -4.08553 0 255 0
1.07685 -0.888143 -4.35494 0 255 0
0.991295 -0.9895 -4.5178 0 255 0
3.47123 -0.26625 -2.73061 255 0 255
2.70723 -0.739767 -4.41658 0 255 0
3.73229 -0.418362 -3.52343 255 0 255
1.1219 -0.688867 -3.24286 0 255 0
4.23398 0.0991147 -0.814724 0 255 0
-0.92019 -0.0465552 -3.38657 255 0 255
-2.07821 0.0913337 -2.49221 0 255 0
4.16745 0.0803033 -7.1981 0 255 0
4.76911 0.114646 -7.34055 0 255 0
5.23765 0.129399 -7.51486 0 255 0
2.96684 0.120226 -6.33553 255 0 255
3.19771 0.0521469 -6.82937 255 0 255
3.56187 0.0230744 -7.04024 0 255 0
5.36433 0.161237 -7.83021 255 0 255
-0.251197 0.0197066 -4.25555 255 0 255
2.85128 -0.000409616 -2.07449 0 255 0
0.46364 -0.202755 -1.50682 255 0 255
-0.195917 -0.379856 -1.34269 255 0 255
2.77383 -0.231726 -2.11799 255 0 255
-1.50974 -0.981213 -1.78933 255 0 255
-2.20785 -1.08324 -1.76847 255 0 255
-2.93842 -1.09599 -1.82956 255 0 255
-3.3055 -1.16039 -1.69407 0 255 0
-3.59919 -1.13085 -1.32321 0 255 0
-5.17144 -1.08645 0.793362 0 255 0
-5.41864 -1.13016 0.901328 0 255 0
-5.59829 -1.25012 0.809352 0 255 0
-5.90826 -1.26104 0.706245 0 255 0
-6.22153 -1.23207 0.804933 0 255 0
-6.40662 -1.12401 1.12637 0 255 0
-6.45688 -1.0353 1.77467 0 255 0
-6.25071 -1.04899 2.38175 0 255 0
-5.83057 -1.01153 2.82013 255 0 255
-5.44706 -0.979366 3.02947 255 0 255
-5.28054 -1.04407 3.37484 0 255 0
-5.0968 -0.888135 3.8694 0 255 0
3.578 -0.163724 -2.59365 255 0 255
3.8056 -0.802018 -1.12201 255 0 255
0.463571 -0.0137537 -4.74275 0 255 0
3.56008 -0.602374 -1.27346 255 0 255
4.74074 0.0238982 0.81423 0 255 0
4.4595 0.0287172 0.687072 0 255 0
4.85273 0.111911 1.22526 0 255 0
4.09413 0.0950267 0.400605 255 0 255
0.897008 -0.113281 -4.56187 255 0 255
5.22425 0.0485146 1.40482 255 0 255
5.47652 0.0453883 1.80923 255 0 255
3.345 -0.386555 -2.74783 0 255 0
3.62303 0.0977467 0.0544271 255 0 255
5.48099 0.156284 2.32607 0 255 0
5.56889 0.0890269 3.0991 0 255 0
5.47881 0.169045 3.43235 0 255 0
5.76416 0.169168 2.77563 0 255 0
6.2439 0.166948 2.62115 0 255 0
5.6123 0.166219 3.81562 0 255 0
5.77751 0.238731 3.0763 255 0 255
5.89089 0.193845 3.98705 0 255 0
5.69569 0.0607591 2.88734 0 255 0
5.92581 0.150605 2.68427 0 255 0
5.58501 0.301852 3.2482 0 255 0
3.45434 -0.811903 -2.89987 255 0 255
5.47356 0.282314 3.43091 0 255 0
-4.09886 -1.08881 -0.666511 0 255 0
-4.0638 -0.773408 0.0214857 0 255 0
5.45284 0.140981 -8.38682 0 255 0
2.63271 0.0670918 -5.76268 0 255 0
1.17685 -0.102022 -4.67337 0 255 0
-3.21723 -0.0638319 -2.93184 0 255 0
1.19024 0.0875434 -5.05027 0 255 0
4.47156 0.183799 -0.411881 255 0 255
4.6096 0.133171 -0.242237 255 0 255
-1.6232 0.0294191 -2.58902 0 255 0
2.01353 0.0993438 -5.30481 0 255 0
-5.20389 -0.135046 -1.01439 255 0 255
-2.80978 -0.0425031 -3.29087 0 255 0
-2.35665 -0.00152875 -3.77109 255 0 255
-1.94648 0.0534336 -4.31235 0 255 0
-1.34829 0.0164467 -4.68204 255 0 255
-0.716956 0.127987 -4.91241 255 0 255
2.46786 -0.504102 -2.70559 0 255 0
-5.29081 -0.516201 5.24198 255 0 255
-5.19484 -0.304917 5.07019 255 0 255
-5.7616 -0.585727 5.10097 0 255 0
-5.79653 -0.606457 5.19617 0 255 0
3.02967 -0.342233 -2.29411 255 0 255
5.46161 0.330741 3.83078 0 255 0
0.0133853 0.19846 -5.0935 0 255 0
2.70195 -0.695936 -2.09772 255 0 255
2.08035 -1.04265 -2.29336 0 255 0
1.77389 -1.04001 -2.70247 255 0 255
-5.46951 -0.649004 4.9042 0 255 0
-5.73995 -0.677922 5.02597 0 255 0
-5.88343 -0.721149 5.2573 0 255 0
-5.39402 -0.747999 4.90552 0 255 0
-5.88995 -0.710588 5.7765 0 255 0
-6.05195 -0.811569 6.41775 255 0 255
-5.87668 -0.793203 6.96339 255 0 255
-4.83697 -0.677781 7.4271 0 255 0
-4.46571 -0.733431 7.43423 0 255 0
-4.18832 -0.744638 7.51554 0 255 0
-3.99639 -0.725502 7.93943 0 255 0
-3.81452 -0.705073 8.55329 0 255 0
-5.32729 -0.647709 7.31847 0 255 0
-3.74473 -0.663968 9.02733 0 255 0
-8.60767 -1.12814 -0.962653 255 0 255
-9.33895 -1.28061 -0.921465 0 255 0
-7.77443 -1.03313 -0.53164 0 255 0
-7.04621 -1.01899 -0.101181 255 0 255
-6.31338 -0.887817 0.0962069 0 255 0
-10.141 -1.39042 -0.821031 255 0 255
-10.6973 -1.50454 -0.824885 0 255 0
-11.1762 -1.61078 -1.05811 0 255 0
-5.50346 -0.858289 -0.0511141 0 255 0
-4.91496 -0.838609 -0.111449 255 0 255
-4.54432 -0.726278 -0.0302471 255 0 255
-11.5915 -1.70384 -1.54041 0 255 0
-11.7725 -1.78503 -2.03782 0 255 0
-12.3425 -1.73843 -2.18561 0 255 0
-12.9328 -1.64386 -2.05591 0 255 0
-13.516 -1.70236 -2.08069 0 255 0
-14.1019 -1.59318 -2.35084 0 255 0
-7.12556 -1.53013 -1.95522 0 255 0
-6.83306 -1.57616 -0.407734 0 255 0
-7.22344 -1.43253 -0.58323 0 255 0
-6.86811 -1.60832 -1.33725 0 255 0
-7.09551 -1.42562 -2.49403 255 0 255
-6.54529 -1.31259 -2.96988 255 0 255
-5.67713 -1.45425 -3.52051 255 0 255
-6.71682 -1.74455 -0.75273 0 255 0
-4.20772 -0.051287 -0.953357 255 0 255
-4.7019 -0.0537514 -0.796915 0 255 0
-4.03386 -0.657082 0.202684 0 255 0
-6.76123 -1.76798 -0.424796 255 0 255
-5.6419 -0.98678 4.4514 255 0 255
-4.97799 -1.53307 -4.14139 255 0 255
-7.65591 -1.44738 -1.01478 255 0 255
-3.35063 0.042321 -1.3191 0 255 0
-6.5525 -0.0800861 -0.0239489 0 255 0
-6.1234 -0.128817 -0.50317 0 255 0
-5.89395 -0.395607 5.07212 255 0 255
-3.42954 -0.332094 0.675761 255 0 255
3.34099 -0.909082 -3.00405 255 0 255
3.58671 -0.760856 -2.58687 0 255 0
3.58736 -0.769952 -2.58657 0 255 0
3.58716 -0.776121 -2.58674 0 255 0
3.64252 -0.780417 -2.63768 0 255 0
3.73688 -0.796455 -2.63968 255 0 255
3.80294 -0.823375 -2.59948 255 0 255
3.79945 -0.838651 -2.55887 0 255 0
3.55698 -0.883433 -2.58264 0 255 0
3.69053 -0.86224 -2.45431 255 0 255
3.39376 -0.916159 -2.86271 255 0 255
-5.87873 -0.530227 5.09947 255 0 255
-3.74602 0.234698 -2.11418 0 255 0
-0.279477 -0.740047 -7.44297 255 0 255
-3.35031 -0.542351 0.395675 0 255 0
-2.96586 -0.539228 0.336438 255 0 255
-4.51221 -0.451602 7.66752 0 255 0
-4.53176 -0.471091 7.56431 255 0 255
-4.83329 -0.454917 7.22475 0 255 0
-4.27326 -0.405374 7.78676 0 255 0
-5.43893 -0.471019 6.59828 0 255 0
-5.94215 -0.564379 5.52395 0 255 0
-5.88363 -0.558984 5.96913 0 255 0
-5.88081 -0.548622 5.156 0 255 0
-5.72502 -0.562615 4.7517 255 0 255
-3.80606 -0.394666 7.90104 0 255 0
-3.51524 -0.442584 7.84965 255 0 255
-3.40645 -0.496143 7.64368 0 255 0
-5.59101 -0.522596 4.63744 0 255 0
-5.60507 -0.290756 5.38279 0 255 0
6.17204 -0.467713 3.64972 0 255 0
6.49454 -0.204273 4.14184 0 255 0
6.47621 -0.120663 4.54652 0 255 0
6.4693 -0.16267 4.70453 0 255 0
6.7722 -0.0694206 5.07804 0 255 0
6.46109 -0.42862 3.82662 255 0 255
6.0698 -0.534225 3.56991 255 0 255
6.39843 -0.45627 3.92427 255 0 255
7.0907 -0.130955 5.65759 255 0 255
7.12322 -0.318811 5.72136 0 255 0
7.02754 -0.425199 5.73773 0 255 0
6.90932 -0.435983 5.68056 0 255 0
6.89985 -0.183872 6.00775 255 0 255
-5.24965 -0.013718 -0.758287 0 255 0
-5.75259 -0.106599 -0.711709 0 255 0
-6.16622 -0.0440493 -0.471891 255 0 255
-7.3196 -0.160351 1.891 0 255 0
-6.68698 -0.168674 1.94704 255 0 255
6.22424 0.764781 0.677876 0 255 0
6.03467 0.854364 0.399319 255 0 255
-5.71484 -0.516831 4.32097 0 255 0
1.54748 0.018715 -4.56358 0 255 0
1.33581 0.0240231 -4.71895 255 0 255
-3.79749 -0.0743325 -1.91578 255 0 255
-3.65891 -0.146007 -2.47411 255 0 255
-3.79876 -0.0766533 -1.28854 255 0 255
-3.4256 -0.109805 -2.7808 255 0 255
-3.85661 -0.101381 -0.706487 0 255 0
-7.86811 -0.232161 1.91134 255 0 255
-5.19397 -0.00595547 0.796468 255 0 255
-1.4766 -0.327399 9.41458 0 255 0
-1.69822 -0.345352 9.64183 255 0 255
-1.95935 -0.377839 10.0023 255 0 255
-2.30151 -0.35062 10.1168 0 255 0
-2.88994 -0.430777 10.0129 255 0 255
-1.19942 -0.251024 9.27798 255 0 255
-3.78794 -0.50964 9.32341 255 0 255
-3.3173 -0.475258 9.70096 0 255 0
-3.61635 -0.499057 9.43607 0 255 0
-3.9609 -0.620837 9.34951 255 0 255
6.30906 0.167571 5.02109 0 255 0
6.60702 0.218471 4.80488 0 255 0
7.0668 0.130664 5.92883 0 255 0
7.18874 0.139563 6.17606 255 0 255
6.47905 0.210491 5.8819 255 0 255
6.969 0.0743776 6.21806 0 255 0
7.41142 0.190995 6.51125 0 255 0
7.45506 0.239279 6.49806 0 255 0
7.56091 0.206811 6.62355 0 255 0
6.0819 0.1973 5.27272 255 0 255
6.02212 0.125915 5.27955 0 255 0
6.9718 0.208454 5.84473 0 255 0
6.0916 0.278746 5.48982 255 0 255
6.34799 0.246075 6.56939 255 0 255
5.17476 0.217001 7.54666 255 0 255
5.73131 0.244493 7.55479 255 0 255
6.0765 0.258066 7.25674 255 0 255
4.37132 0.14949 7.35679 0 255 0
5.88519 0.332696 5.14296 255 0 255
5.5467 0.303076 4.46677 0 255 0
5.63665 0.281435 4.8618 255 0 255
5.84258 0.290607 5.11402 0 255 0
7.04056 0.195855 6.0677 255 0 255
6.92777 0.112223 6.27666 0 255 0
6.94953 0.106039 6.27887 0 255 0
6.78884 0.184842 5.95747 0 255 0
6.76721 0.0566339 5.73329 255 0 255
4.66858 0.715209 5.22397 255 0 255
6.50755 0.28093 2.43702 0 255 0
-6.39905 -0.184944 2.3981 255 0 255
-5.67578 -0.19403 3.54937 255 0 255
-4.26946 -0.39428 4.96335 0 255 0
1.13324 0.144148 7.69672 0 255 0
1.20183 0.161683 7.95778 255 0 255
1.30446 0.0469634 7.45881 0 255 0
2.1068 0.0519672 8.45304 0 255 0
1.63978 0.0262288 8.62836 0 255 0
1.08582 0.0109971 7.40486 0 255 0
1.07112 -0.120289 8.57985 0 255 0
2.70463 0.694327 5.37574 255 0 255
3.37335 0.851606 5.64008 0 255 0
2.76179 0.843759 5.52363 255 0 255
2.57508 0.428666 5.75896 0 255 0
2.49417 0.191699 6.93177 255 0 255
3.30255 0.0858638 7.13219 255 0 255
6.8331 0.219561 4.4147 0 255 0
6.17551 0.271788 3.9613 255 0 255
3.53767 0.784321 5.15893 255 0 255
-2.08335 0.110726 6.72558 0 255 0
-2.3744 0.0422372 7.22933 0 255 0
-2.14429 0.0816985 6.94208 0 255 0
-2.08576 0.0418473 6.41993 255 0 255
-2.05413 -0.0763451 6.11792 255 0 255
-2.83285 0.236252 7.33283 255 0 255
-1.97703 -0.170225 5.89232 255 0 255
0.480854 0.225195 -5.30987 0 255 0
0.700901 0.314158 -5.54885 255 0 255
-0.86967 -0.265023 9.23642 0 255 0
5.52231 -0.118301 1.31561 255 0 255
5.50792 -0.212035 1.43753 255 0 255
2.16687 0.0722587 7.76618 0 255 0
-4.10306 -0.0176987 -0.0911369 255 0 255
-4.50723 -0.0865389 0.460755 0 255 0
-4.59976 -0.135885 1.09672 255 0 255
2.06457 0.0469904 -2.21895 255 0 255
5.22783 -0.319833 1.16104 255 0 255
-6.94213 0.0440391 -0.340882 255 0 255
-4.38035 -1.44599 -4.8655 255 0 255
-0.72433 -0.29999 9.11115 0 255 0
6.18452 0.0615511 0.834508 255 0 255
7.12871 0.629035 1.24444 0 255 0
-5.58312 -0.141384 5.67184 0 255 0
0.935872 0.079585 -4.72397 0 255 0
0.491378 0.0887633 -4.61449 255 0 255
-0.0387949 0.120182 -4.13256 0 255 0
5.96686 0.371555 5.00479 255 0 255
-6.9533 -0.277624 0.43033 255 0 255
-8.29439 -0.293413 1.78975 0 255 0
6.11518 0.672744 0.624683 0 255 0
-5.98465 -0.631755 2.70661 0 255 0
-6.05784 -0.587934 2.8829 0 255 0
-5.76968 -0.599263 2.66463 0 255 0
-5.94251 -0.481894 3.57701 255 0 255
-4.57526 -0.205675 4.86186 0 255 0
0.0864429 -0.169767 9.03524 255 0 255
-0.135614 -0.0777357 9.23077 0 255 0
0.35257 -0.280518 8.72042 255 0 255
0.637088 -0.251945 8.58308 0 255 0
-0.437748 -0.0437369 9.19394 0 255 0
-0.834098 -0.0685626 8.89044 0 255 0
-1.44798 -0.107114 8.52379 0 255 0
-2.07964 -0.0528299 8.39183 0 255 0
-2.58257 -0.0219969 8.40466 0 255 0
-3.18184 -0.0828121 8.45288 255 0 255
-3.60445 -0.0712599 8.28191 0 255 0
-3.98169 -1.96018e-07 7.81265 0 255 0
-4.33055 -0.042234 7.2227 0 255 0
-4.69275 -0.0313876 6.8671 255 0 255
-5.0854 0.0144469 6.69335 255 0 255
-5.98831 -0.129395 3.0008 255 0 255
-8.27916 -0.358382 1.32461 0 255 0
-9.03742 -0.272048 1.64111 255 0 255
-10.5013 -0.58477 2.18318 255 0 255
6.5347 0.258435 3.8612 255 0 255
6.93201 0.176645 4.09331 0 255 0
-5.77797 -0.0864709 0.968828 0 255 0
-6.46709 -0.177184 1.15899 0 255 0
-7.18666 -0.140087 1.49624 0 255 0
-7.819 -0.251764 1.86865 0 255 0
-8.504 -0.205609 1.88811 0 255 0
-8.80841 -0.0443784 1.182 0 255 0
-9.17911 -0.238598 1.72764 0 255 0
-9.24269 -0.174739 1.62117 0 255 0
-9.94598 -0.229197 1.38839 0 255 0
-10.7301 -0.134279 1.14141 0 255 0
-8.84 -0.0942677 0.85793 0 255 0
-8.30178 -0.0397067 0.00630335 0 255 0
-7.70303 2.73911e-08 -0.388363 0 255 0
-3.82309 0.577589 7.79022 255 0 255
5.27435 -0.411902 1.63415 255 0 255
-8.03009 -0.0772547 -0.354628 255 0 255
-5.36619 -0.380058 2.4959 255 0 255
-1.55584 -0.096997 9.27943 0 255 0
-1.5342 0.11891 9.37486 255 0 255
-1.87053 -0.15097 9.20191 0 255 0
-5.25065 -0.524297 2.01119 0 255 0
0.158624 -0.086978 8.83598 0 255 0
-0.237663 -0.156674 8.81621 0 255 0
-0.610821 -0.293772 8.95933 255 0 255
-0.675484 -0.265765 9.0722 0 255 0
-11.478 -0.188559 1.00656 255 0 255
-5.63188 -0.307047 4.80769 255 0 255
-5.56982 -0.0559207 6.56761 255 0 255
1.32961 0.198269 8.11143 0 255 0
-5.2662 -0.613489 1.53899 255 0 255
-4.42263 -0.0699132 1.68716 255 0 255
-8.9123 -0.1267 1.41946 0 255 0
6.61294 -0.261618 4.28274 255 0 255
1.04361 0.277771 -5.84817 255 0 255
-8.58026 -0.144578 0.53471 255 0 255
-9.21172 -0.6354 2.27626 0 255 0
-1.16596 0.0146109 -2.8553 255 0 255
-0.667105 0.136514 -3.41999 255 0 255
-8.44452 -0.292406 1.47203 255 0 255
-9.49086 -0.562596 2.49463 255 0 255
-10.3639 -0.568072 2.03665 0 255 0
4.90569 -0.304716 6.75823 0 255 0
4.40316 -0.105592 7.15109 0 255 0
4.23737 -0.1161 7.36909 255 0 255
4.16538 -0.0860064 7.54168 0 255 0
4.69744 -0.137072 6.95692 255 0 255
3.75184 -0.00981414 7.6111 255 0 255
4.00083 -0.115317 7.56546 0 255 0
3.36552 0.0807988 7.74126 255 0 255
-0.536591 1.11637 6.63664 255 0 255
5.47347 -0.184173 1.2277 0 255 0
2.53357 -1.27942 -9.00806 255 0 255
1.89796 -1.35612 -8.48676 0 255 0
2.81265 -1.44523 -9.73525 255 0 255
-5.97148 -0.117157 6.31548 0 255 0
5.70867 -0.082839 1.79499 0 255 0
-4.1555 -1.49606 -5.55448 255 0 255
-6.07374 -0.175166 5.81008 255 0 255
-5.89709 -0.229503 5.61761 255 0 255
-6.13611 -0.252354 5.3722 0 255 0
-6.17417 -0.248828 5.45809 0 255 0
-5.7584 0.0935955 6.29383 255 0 255
-5.41733 -0.191629 6.13497 0 255 0
-5.87795 0.156924 7.00724 0 255 0
-5.01747 -0.207494 6.68295 255 0 255
-1.80375 0.588895 7.4447 255 0 255
-3.74097 -1.52558 -6.20648 255 0 255
-14.2595 -1.08886 -2.51939 0 255 0
-1.55963 0.155767 9.23282 0 255 0
-3.15586 0.245596 -2.51219 0 255 0
-12.0596 -0.136344 0.745732 0 255 0
-12.5759 -0.0339295 0.444921 0 255 0
-13.0458 -0.0547168 0.376141 0 255 0
-13.4173 -0.108999 0.326138 255 0 255
-13.421 -0.161669 0.227319 0 255 0
-13.2658 -0.33273 0.243727 255 0 255
-13.1928 -0.385751 0.0406046 0 255 0
-13.421 -0.379714 -0.373076 255 0 255
-13.5671 -0.280469 -0.618115 255 0 255
-13.8792 -0.155737 -0.875284 255 0 255
-13.3157 -0.100746 0.407381 255 0 255
-14.3397 -0.145966 -1.698 255 0 255
-14.3786 -0.0853009 -2.26612 0 255 0
-14.3161 -0.159942 -2.82948 255 0 255
-14.4145 -0.188794 -3.2326 255 0 255
-14.776 -0.12175 -3.28948 0 255 0
-14.2601 -0.125713 -1.19727 255 0 255
-15.7201 -0.145853 -3.06485 0 255 0
-15.9008 -0.00200926 -3.95258 0 255 0
-16.0661 0.0174214 -4.11006 0 255 0
-16.1785 -0.00267931 -4.13144 255 0 255
-16.0715 -0.0452304 -4.54348 255 0 255
-16.5432 0.0396806 -4.87491 255 0 255
-16.9484 0.0251639 -5.24929 0 255 0
-17.101 0.00680059 -5.57258 0 255 0
-17.0624 0.0615168 -5.84169 255 0 255
-16.9858 0.0517632 -6.04053 0 255 0
-17.06 0.0416956 -6.24149 0 255 0
-17.3573 0.0700352 -6.56529 0 255 0
-17.7395 0.0355321 -6.95929 255 0 255
-17.9687 -0.0126958 -7.25035 0 255 0
-17.9188 -3.91088e-07 -7.58337 0 255 0
-17.7848 0.016034 -7.88954 0 255 0
-17.7499 0.0408733 -8.35266 255 0 255
-17.9406 0.00279506 -8.69752 0 255 0
-19.2298 -0.0247563 -8.17344 0 255 0
-19.3164 0.0184439 -7.99058 0 255 0
-19.2394 0.0828977 -7.69048 0 255 0
-19.5843 -0.0668458 -7.45339 0 255 0
-19.7528 -0.0596034 -6.91279 0 255 0
-19.8156 -0.0263016 -6.25007 0 255 0
-19.858 -0.018038 -5.80456 0 255 0
-19.8843 -0.0121739 -5.63328 0 255 0
-20.0273 -0.124782 -5.52376 0 255 0
-20.0383 -0.124389 -5.48206 255 0 255
-20.017 -0.124649 -5.56189 0 255 0
-19.9009 -0.115576 -5.79632 0 255 0
-19.7326 -0.123205 -6.08629 0 255 0
-19.6631 -0.106301 -6.32271 0 255 0
-19.7338 -0.0571346 -6.49783 0 255 0
-19.7966 -0.101786 -6.73769 255 0 255
-19.6409 -0.0971245 -7.06427 0 255 0
-19.2802 -0.0580923 -7.50279 0 255 0
-18.9114 -0.0854027 -7.84008 0 255 0
-18.6674 -0.0899999 -8.04089 0 255 0
-18.5141 -0.130124 -8.20379 255 0 255
-18.3975 -0.154712 -8.43864 0 255 0
-18.2119 -0.0473078 -8.96455 255 0 255
-18.5546 -0.208803 -9.04381 0 255 0
-18.2668 -0.145241 -8.82028 255 0 255
-18.6234 0.066947 -8.59951 0 255 0
-18.858 -0.00209467 -8.18471 0 255 0
-18.3798 0.0814944 -7.66681 0 255 0
-18.8593 -0.10247 -8.79616 0 255 0
-19.4771 0.0667245 -8.47619 0 255 0
-19.0995 -0.0414052 -8.88392 0 255 0
-20.0667 -0.00812313 -8.79439 0 255 0
-20.3811 -0.0730952 -9.2235 0 255 0
-19.3242 -0.0116375 -8.96742 0 255 0
-19.3558 -0.00455942 -9.11294 0 255 0
-19.0709 0.0590547 -9.22082 0 255 0
-20.4314 0.01126 -9.72698 255 0 255
-18.0799 0.0571763 -6.96235 255 0 255
-18.6082 -0.0798672 -8.68957 255 0 255
-20.3675 0.0265591 -10.3439 0 255 0
-17.5909 0.090235 -6.20535 0 255 0
-20.4365 -0.0323205 -10.8053 255 0 255
-20.6696 -0.161877 -10.9644 0 255 0
-20.7928 -0.242402 -10.6256 255 0 255
-17.0934 0.143078 -5.5868 255 0 255
-18.131 0.0878955 -9.30256 0 255 0
-18.0553 0.168821 -9.1552 255 0 255
-18.4517 0.263299 -8.51634 0 255 0
-18.5023 0.118851 -9.2914 0 255 0
-20.8403 -0.344793 -9.97946 255 0 255
-18.794 0.161776 -8.1762 255 0 255
-17.7049 0.0924181 -7.84314 255 0 255
-17.6645 0.144158 -7.76756 255 0 255
-17.7903 0.177308 -7.92761 255 0 255
-17.9447 0.217749 -8.2081 0 255 0
-18.2561 0.276657 -8.38189 0 255 0
-18.6318 0.320848 -8.36812 255 0 255
-19.0119 0.261042 -8.07642 0 255 0
-19.4132 0.143334 -7.83279 255 0 255
-19.8703 0.140416 -7.81939 255 0 255
-20.2716 0.177453 -8.00763 255 0 255
-20.6004 0.177954 -8.21291 0 255 0
-20.7448 0.164917 -8.36726 255 0 255
-20.7992 0.177971 -8.2836 0 255 0
-18.2893 0.212418 -7.85964 255 0 255
-18.6587 0.0507542 -8.02398 0 255 0
-16.461 0.0996127 -5.03553 255 0 255
-15.8624 0.128758 -4.37874 255 0 255
-21.1816 -0.362805 -9.38062 255 0 255
-21.3739 -0.25125 -9.10565 255 0 255
-21.2067 -0.319057 -8.71019 255 0 255
-20.7599 -0.329341 -8.48947 255 0 255
-20.2338 -0.399651 -8.10633 255 0 255
-20.3467 -0.465528 -8.45415 0 255 0
-20.5672 -0.354113 -7.81086 0 255 0
-21.0313 0.567442 -8.17415 255 0 255
-21.2484 0.581853 -7.91336 0 255 0
-21.2356 0.43267 -7.7891 255 0 255
-20.9736 0.25608 -7.96447 255 0 255
3.84091 0.173631 -1.44875 255 0 255
6.22138 0.378451 4.76303 0 255 0
-4.56038 -0.2237 4.97173 255 0 255
-5.21665 -0.00692939 5.82874 0 255 0
-5.34571 0.001742 5.06705 255 0 255
-5.12445 -0.0709625 6.49738 0 255 0
-5.07378 -0.184161 6.37512 255 0 255
-15.476 0.273971 -3.60162 255 0 255
5.87698 0.919803 1.49467 255 0 255
-14.9156 0.306563 -2.79597 255 0 255
-4.22487 -0.648716 6.34145 255 0 255
-2.32787 -1.57902 -6.83227 255 0 255
-3.28717 -1.50492 -6.48827 0 255 0
5.70866 -0.167678 1.27353 0 255 0
5.76871 -0.0884994 1.73655 0 255 0
5.91072 0.0379255 1.24675 0 255 0
5.92838 -0.056619 1.24712 0 255 0
5.27958 0.951428 2.91771 255 0 255
5.26269 0.823838 2.49028 255 0 255
5.90828 -0.0778401 0.987723 0 255 0
5.73038 -0.017028 0.83266 255 0 255
5.39512 0.892959 3.45584 255 0 255
5.29193 0.812539 3.95883 255 0 255
5.08962 0.707502 2.05503 0 255 0
5.48033 1.08639 2.33661 255 0 255
-0.959778 -0.00832656 9.255 0 255 0
-0.319288 -0.0340033 9.17733 0 255 0
0.340307 0.0361879 8.87363 255 0 255
0.98524 -0.043185 8.43635 255 0 255
1.63879 -0.0300542 8.21344 255 0 255
2.53665 0.0436231 8.10574 255 0 255
-2.43175 -0.0961881 9.41138 0 255 0
5.0944 0.0277852 1.63089 0 255 0
5.42207 0.275563 0.954614 255 0 255
5.6764 0.337361 0.644833 0 255 0
-5.68333 -0.154072 5.07773 255 0 255
0.431016 -0.836423 -7.94782 255 0 255
1.14053 -1.2439 -8.31883 255 0 255
-1.30953 -1.30488 -6.99748 255 0 255
-2.53174 0.117213 7.8854 0 255 0
-2.10214 0.162961 8.21205 255 0 255
-1.72309 0.206683 8.79846 0 255 0
6.51206 0.300717 4.52299 255 0 255
6.8576 0.259964 4.3201 255 0 255
6.97227 0.220182 4.16659 255 0 255
-14.3537 0.441897 -2.16871 0 255 0
-14.5081 -0.497549 -2.52261 255 0 255
3.06062 -1.51051 -10.3348 255 0 255
-1.67698 -0.0169406 9.34917 255 0 255
3.35004 0.0782556 7.91802 255 0 255
3.92662 0.134564 7.66036 255 0 255
4.37477 0.100323 7.24212 255 0 255
4.82786 0.061496 6.81343 255 0 255
5.49927 0.441584 6.14812 255 0 255
5.61847 0.731693 5.31817 255 0 255
5.54263 0.728705 5.77491 0 255 0
5.51268 0.834151 4.63371 0 255 0
-7.28575 -0.378839 0.445868 255 0 255
-3.03011 0.156722 7.80321 255 0 255
-4.23539 0.0481574 6.56924 0 255 0
-3.89011 0.0867861 7.21019 0 255 0
-3.51301 0.0491545 7.62532 255 0 255
-4.58905 -0.00208483 6.06935 0 255 0
-5.00229 0.0673357 5.7682 0 255 0
5.60946 0.137684 -9.03717 255 0 255
-5.35163 0.011075 5.59211 0 255 0
-4.70911 -0.198025 7.2043 255 0 255
6.89734 0.14076 4.26261 0 255 0
6.0003 0.279859 0.79907 255 0 255
-5.54209 -0.165612 5.34333 255 0 255
-2.29865 -0.0766955 9.40166 255 0 255
-2.84424 -0.0565921 9.48081 0 255 0
-3.39664 -0.116971 9.58003 255 0 255
4.27796 0.254835 -1.35156 0 255 0
-3.90877 -0.188978 9.44956 0 255 0
4.71315 0.585221 1.59226 0 255 0
4.67496 0.82052 0.952588 0 255 0
-13.8193 0.700671 -1.83614 0 255 0
4.73713 0.432395 1.60009 255 0 255
-5.76166 0.175178 7.49362 255 0 255
-4.6781 -0.150526 7.867 0 255 0
-5.44383 0.256776 7.88892 255 0 255
-5.17918 -0.0107279 8.26619 255 0 255
-4.44982 -0.195933 9.01552 0 255 0
-4.84458 -0.15443 8.61704 255 0 255
6.85028 -0.000591026 4.50901 255 0 255
6.79121 -0.0794542 4.39105 0 255 0
6.70799 -0.112322 4.4224 255 0 255
4.34241 0.460761 1.10716 255 0 255
-4.41338 -0.268576 7.93869 0 255 0
-4.13896 -0.245022 8.35539 0 255 0
-3.70567 -0.211934 8.86421 255 0 255
-3.23329 -0.233175 9.31327 255 0 255
-2.80686 -0.200878 9.43799 255 0 255
6.47437 0.283464 0.630163 255 0 255
6.71903 0.134543 1.15348 255 0 255
-1.79354 -1.41218 -6.71109 255 0 255
1.35415 0.261123 -5.90206 0 255 0
-0.57732 0.0357023 -0.997434 255 0 255
-0.400094 0.0431369 -0.804309 0 255 0
-1.30811 0.00940686 0.0113081 255 0 255
-0.780213 -0.0166904 0.187748 255 0 255
-0.358512 0.0699715 -0.369979 255 0 255
-0.509668 0.00280089 0.200661 0 255 0
-0.322957 0.0142433 0.03606 255 0 255
6.46534 0.272565 1.58384 255 0 255
5.80682 0.0386298 -9.27163 0 255 0
